-17.395748138427734 9.946237564086914 0.9231479167938232
42.9451789855957 41.98918914794922 17.107250213623047
21.41521453857422 43.66789627075195 15.651185989379883
21.143461227416992 48.576316833496094 9.895398139953613
22.296175003051758 51.88691711425781 7.061981201171875
28.454879760742188 43.218360900878906 6.323631525039673
39.31890869140625 38.481529235839844 15.557360649108887
45.23473358154297 39.1553955078125 5.308789968490601
19.056795120239258 48.78911209106445 10.013190269470215
23.862689971923828 44.50556182861328 9.26305866241455
39.7227668762207 38.01114273071289 7.964942932128906
42.662811279296875 43.909934997558594 5.379565477371216
-19.868642807006836 37.407142639160156 2.544257789850235
38.02175521850586 40.0506477355957 15.592873573303223
42.295005798339844 43.357643127441406 17.53991985321045
38.684329986572266 46.64845657348633 15.561906814575195
39.30067443847656 49.16706085205078 10.24563455581665
43.186866760253906 36.47963333129883 9.887685298919678
23.669525146484375 46.38496398925781 10.127048969268799
29.238113403320312 45.097312927246094 8.225847721099854
21.839977264404297 47.37968444824219 5.682499408721924
22.417957305908203 44.844749450683594 4.027460813522339
22.829835891723633 48.65116882324219 14.218618392944336
22.70454216003418 43.415645599365234 14.863375663757324
42.22846221923828 37.32527160644531 15.072855949401855
39.08549880981445 45.63783264160156 9.944807529449463
40.96888732910156 36.452415466308594 9.270809173583984
39.76285171508789 46.00706100463867 8.73493766784668
23.102863311767578 46.160789489746094 6.356335878372192
20.943464279174805 47.02729034423828 6.492271661758423
42.513275146484375 45.35556411743164 0.9065182209014893
27.37533950805664 45.01615524291992 13.299470901489258
20.170503616333008 46.46290969848633 12.459050178527832
23.818315505981445 47.18362045288086 13.296480178833008
37.560157775878906 40.12127685546875 13.18663215637207
21.95492935180664 48.626529693603516 9.75287675857544
18.629518508911133 51.387298583984375 8.697534561157227
36.6063346862793 39.656734466552734 8.464868545532227
40.765682220458984 38.191551208496094 7.260025501251221
25.559621810913086 44.923091888427734 6.848702907562256
26.205503463745117 42.53573226928711 10.271368503570557
20.707902908325195 46.58552551269531 12.363570213317871
39.50718307495117 42.17560577392578 14.680425643920898
38.91616439819336 40.610618591308594 14.688809394836426
22.369815826416016 48.445281982421875 14.09421157836914
23.630271911621094 50.18791961669922 11.170868873596191
23.18720245361328 43.01479721069336 9.930588245391846
19.469472885131836 52.40660095214844 8.658628940582275
46.323150634765625 41.001548767089844 7.960060119628906
21.046024322509766 46.63135528564453 6.755458116531372
19.673751831054688 51.96031951904297 6.477828502655029
24.140817642211914 45.038108825683594 7.733295440673828
43.058197021484375 38.06132888793945 6.339075326919556
-32.60485076904297 35.18203353881836 5.708825588226318
23.32596206665039 48.7602653503418 3.1175089105963707
42.86580276489258 43.57750701904297 2.617946594953537
45.7408447265625 25.167245864868164 0.6760921478271484
45.46435546875 38.036231994628906 9.756897926330566
21.30554962158203 52.97590637207031 5.653006076812744
40.861793518066406 45.09754943847656 7.802905559539795
41.438865661621094 45.31238555908203 9.222525596618652
40.48249435424805 44.08857345581055 8.861730575561523
41.62750244140625 40.918033599853516 7.7589311599731445
41.297271728515625 45.3387451171875 9.073098182678223
45.298248291015625 39.25579071044922 5.724876642227173
19.919445037841797 52.3530387878418 7.446510314941406
21.948772430419922 47.803340911865234 7.538138389587402
23.32012176513672 50.19276428222656 7.512213230133057
39.98072814941406 48.43519592285156 11.970084190368652
23.36635398864746 48.581912994384766 3.4867215752601624
27.91440200805664 45.4766960144043 6.121687173843384
22.351842880249023 48.777244567871094 6.683505058288574
42.55651092529297 38.415374755859375 6.676061153411865
43.71512222290039 45.408748626708984 8.602784633636475
42.3714485168457 39.158321380615234 11.911986351013184
22.526897430419922 46.48434829711914 14.884174346923828
19.55811309814453 51.20024490356445 6.087374448776245
28.021778106689453 45.52759552001953 6.601300477981567
22.305864334106445 48.20610809326172 8.303962707519531
22.338804244995117 52.60457992553711 8.927798748016357
23.869115829467773 46.39668655395508 12.292513847351074
22.27410888671875 46.043792724609375 15.882744789123535
23.63302230834961 51.20350646972656 6.559847354888916
24.942729949951172 48.59400177001953 7.161943435668945
46.50276184082031 39.18009948730469 10.099850177764893
43.167945861816406 41.052833557128906 12.263167381286621
23.457874298095703 48.5997314453125 4.348515152931213
24.998600006103516 45.379127502441406 6.929737091064453
23.163732528686523 49.99622344970703 6.084630966186523
44.77885437011719 38.12110137939453 8.753676891326904
45.11310958862305 38.94647216796875 9.319180488586426
22.181373596191406 48.9250373840332 8.473316192626953
23.077220916748047 47.58078384399414 9.245086193084717
22.175464630126953 46.54022216796875 14.922704696655273
-32.08128356933594 31.57755470275879 3.5039031505584717
20.0800838470459 52.168521881103516 7.307024955749512
26.92323112487793 44.80239486694336 6.902844190597534
23.630287170410156 50.167884826660156 7.026548862457275
19.535552978515625 53.78886795043945 6.913123846054077
-32.34756088256836 31.736492156982422 4.59247624874115
24.66413688659668 48.23286819458008 7.23373556137085
20.275775909423828 49.16374969482422 7.922275543212891
24.307233810424805 53.2607421875 10.10945749282837
21.969684600830078 49.21693801879883 9.902746677398682
42.48397445678711 43.17836380004883 18.476999282836914
39.482872009277344 47.8129997253418 16.722891807556152
23.691402435302734 46.206634521484375 5.538456439971924
20.283964157104492 49.55960464477539 5.70527982711792
23.32931900024414 47.24822998046875 7.344921112060547
40.99597930908203 42.01137924194336 6.6343512535095215
43.76559829711914 36.65327072143555 8.321672916412354
39.28768539428711 40.1897087097168 10.547238826751709
40.055763244628906 40.46795654296875 13.83560562133789
27.479801177978516 42.21839141845703 6.100927114486694
27.751018524169922 45.010154724121094 6.372112274169922
26.02410316467285 42.63136291503906 6.6895811557769775
40.1316032409668 39.00603485107422 6.742309093475342
19.570335388183594 48.389949798583984 8.27931261062622
45.77448272705078 37.75016403198242 9.950786590576172
26.18111801147461 43.64739990234375 13.26096248626709
21.138431549072266 45.82171630859375 5.502900838851929
22.101980209350586 45.19827651977539 6.1739723682403564
20.372690200805664 49.19640350341797 4.898599147796631
40.15827941894531 43.20230484008789 6.7175452709198
19.499103546142578 48.8635368347168 8.344775676727295
46.154991149902344 37.18211364746094 9.269281387329102
41.63382339477539 41.70420837402344 11.52507495880127
41.27234649658203 41.28603744506836 18.355655670166016
-17.461091995239258 36.18992614746094 6.9672393798828125
-21.190580368041992 36.51728057861328 3.8528772592544556
19.92509651184082 48.79587936401367 5.698736906051636
53.72148895263672 -29.645484924316406 1.031494379043579
21.38558006286621 48.39700698852539 7.5410284996032715
20.628421783447266 48.786712646484375 8.709074020385742
42.72248458862305 41.73878479003906 10.91273546218872
22.057626724243164 45.054359436035156 13.283539772033691
41.90583801269531 43.87373733520508 18.024027824401855
-25.06370735168457 16.613182067871094 5.7173521518707275
20.55392074584961 46.049217224121094 4.467138648033142
-9.053603172302246 43.076778411865234 0.8962242603302002
39.58749771118164 44.38675308227539 6.689779758453369
20.340030670166016 46.99076461791992 6.4867658615112305
20.140596389770508 47.81336975097656 7.253737449645996
27.89883041381836 44.92567443847656 8.477889060974121
19.961320877075195 47.59746170043945 8.25510835647583
21.284391403198242 46.406715393066406 8.667932987213135
42.81990051269531 37.22292709350586 10.30015516281128
28.338600158691406 45.66960525512695 13.314085006713867
43.86580276489258 41.77891540527344 17.04280376434326
42.76559066772461 43.47271728515625 2.7099752128124237
19.746191024780273 49.03031921386719 5.903801918029785
20.09783363342285 48.59413146972656 6.6966376304626465
40.69572448730469 37.982749938964844 6.910762786865234
40.886451721191406 35.5933837890625 7.52336311340332
23.798667907714844 43.774532318115234 6.8690104484558105
28.915311813354492 44.0205078125 7.556676864624023
22.589923858642578 47.001224517822266 7.312394142150879
21.1458683013916 47.79823303222656 7.330322265625
24.529582977294922 46.21150207519531 7.905888080596924
39.6938362121582 46.2166862487793 8.889060497283936
20.29570770263672 50.81962585449219 7.3126373291015625
43.20152282714844 38.32822036743164 9.275360107421875
19.13905143737793 51.169654846191406 7.921792030334473
39.12692642211914 45.798011779785156 9.888786792755127
19.93793296813965 46.831085205078125 9.076111793518066
41.932151794433594 42.819786071777344 17.090238571166992
23.319671630859375 43.641258239746094 15.166657447814941
24.09768295288086 47.77071762084961 14.171550750732422
42.12915802001953 42.76363754272461 16.285320281982422
21.619081497192383 49.380123138427734 12.371254920959473
24.136831283569336 47.69792556762695 11.658814430236816
23.49640655517578 51.323089599609375 9.569114685058594
39.39116287231445 48.91532897949219 15.489782333374023
42.466529846191406 43.036407470703125 14.720903396606445
41.80675506591797 -32.670623779296875 1.204459547996521
45.85821533203125 44.57760238647461 14.857768058776855
42.921783447265625 46.5969123840332 14.56281566619873
25.018531799316406 47.89025115966797 13.995582580566406
38.72829818725586 41.79962158203125 14.159924507141113
21.12350845336914 48.4173698425293 12.094707489013672
26.147151947021484 48.41741180419922 12.529146194458008
39.187217712402344 46.985107421875 13.615823745727539
-32.0460319519043 34.35422134399414 4.28579580783844
22.73920440673828 48.70793151855469 13.4053955078125
25.531171798706055 48.94947814941406 11.927190780639648
23.677778244018555 46.645362854003906 11.36453914642334
25.935466766357422 46.62464904785156 12.724502563476562
42.54984664916992 42.010536193847656 16.914361000061035
24.020362854003906 49.961002349853516 12.98180866241455
22.916934967041016 51.16346740722656 12.70441722869873
24.317201614379883 50.23396301269531 10.851820468902588
40.19575881958008 46.48942947387695 12.176506042480469
22.73875617980957 46.389068603515625 15.675477981567383
39.51659393310547 47.64958190917969 16.665656089782715
22.318462371826172 49.407047271728516 12.93484115600586
-26.384843826293945 19.694095611572266 7.675499439239502
23.311275482177734 51.34663391113281 11.955232620239258
-28.06562614440918 37.396156311035156 0.6797406673431396
25.639965057373047 50.55924987792969 10.066212177276611
42.32020950317383 42.26811218261719 15.861004829406738
21.995023727416992 49.209617614746094 13.158267974853516
26.571304321289062 50.44937515258789 12.360380172729492
23.31089210510254 46.80585861206055 9.60499095916748
40.078330993652344 43.0385627746582 10.966127395629883
42.90062713623047 48.400917053222656 11.120011329650879
46.23390197753906 46.206180572509766 11.087752342224121
39.09693908691406 44.98146438598633 15.302369117736816
-28.10477066040039 35.547019958496094 1.8177486658096313
39.57537078857422 47.1961555480957 14.890519142150879
28.026714324951172 46.916507720947266 14.285561561584473
38.86395263671875 40.066871643066406 13.759716033935547
22.51907730102539 45.20259094238281 13.729109764099121
21.553844451904297 43.85892105102539 15.754715919494629
23.4920597076416 43.35295104980469 14.310650825500488
42.759849548339844 36.84067153930664 14.295753479003906
21.814373016357422 44.85683822631836 13.520285606384277
39.87196350097656 41.89586639404297 13.566603660583496
26.3375244140625 43.46714782714844 11.899948120117188
22.736370086669922 44.959007263183594 15.580282211303711
41.76750946044922 41.00896453857422 17.737828254699707
42.188438415527344 40.737518310546875 16.28296947479248
38.56559753417969 39.64950180053711 13.7581148147583
21.363468170166016 44.98979949951172 11.322757720947266
26.04119300842285 43.31399917602539 11.419599533081055
-32.75789260864258 29.957406997680664 6.483478546142578
42.546058654785156 44.42081832885742 17.689038276672363
21.524639129638672 45.21785354614258 16.113051414489746
22.962852478027344 44.608028411865234 15.8983793258667
38.91373825073242 39.612953186035156 14.451767921447754
26.064525604248047 43.239280700683594 12.661561965942383
44.02564239501953 38.26095962524414 12.431605339050293
42.148040771484375 38.75830078125 12.086568832397461
22.08161163330078 46.64577102661133 10.495813369750977
23.03243637084961 44.14436721801758 15.509578704833984
-30.629058837890625 29.179126739501953 2.158040404319763
24.366594314575195 44.46509552001953 14.283370971679688
26.469825744628906 45.400054931640625 14.71635627746582
-31.647932052612305 27.5413761138916 1.525889277458191
39.74359130859375 40.2108268737793 14.902729034423828
38.922855377197266 41.37012481689453 14.08714485168457
43.028045654296875 37.801517486572266 11.614136695861816
20.870071411132812 46.67799758911133 9.993765830993652
38.59959411621094 47.371925354003906 11.720479011535645
42.67498016357422 40.643028259277344 11.452366828918457
25.57910919189453 45.582550048828125 15.260981559753418
39.8596076965332 38.437278747558594 15.195280075073242
40.73904037475586 47.01243591308594 16.22782802581787
21.794233322143555 44.593807220458984 14.752612113952637
41.42240524291992 38.42334747314453 15.153850555419922
38.73760986328125 42.1896858215332 14.495004653930664
39.29002380371094 47.21812057495117 13.492619514465332
22.768165588378906 45.39524459838867 11.124692916870117
37.19919204711914 47.73090362548828 11.039807319641113
22.76932716369629 44.18640899658203 10.896436214447021
24.233131408691406 43.05422592163086 9.315099716186523
45.56013107299805 45.276981353759766 14.052688598632812
42.41895294189453 47.14090347290039 14.058830261230469
22.297639846801758 50.78358840942383 11.936620712280273
43.47611618041992 45.92544937133789 13.302389144897461
40.47565460205078 47.210487365722656 12.32109546661377
22.930770874023438 47.22202682495117 11.511418342590332
42.51417541503906 42.008026123046875 10.734556198120117
23.434247970581055 50.85138702392578 9.993279933929443
45.86436080932617 46.42036056518555 10.61488389968872
23.490938186645508 51.15658187866211 14.330385208129883
42.269447326660156 39.401145935058594 13.420441627502441
21.241466522216797 48.22011947631836 13.266416549682617
40.8067741394043 45.97856140136719 13.695379257202148
26.120513916015625 48.09001541137695 13.622187614440918
42.75572204589844 46.970970153808594 13.939851760864258
42.39377975463867 46.64504623413086 13.849379539489746
42.922359466552734 46.9359245300293 13.695218086242676
25.343046188354492 49.032203674316406 12.724390029907227
23.491418838500977 49.041114807128906 13.401076316833496
23.98789405822754 50.979427337646484 13.551454544067383
23.724254608154297 47.211769104003906 12.93248176574707
23.650691986083984 47.26411437988281 12.787710189819336
21.96253204345703 49.79338455200195 12.494619369506836
22.9209041595459 51.1907844543457 12.51843547821045
-31.278669357299805 33.59387969970703 3.3270204067230225
24.641042709350586 47.44377517700195 11.788350105285645
42.327552795410156 40.44545364379883 12.471731185913086
21.21550750732422 48.44926071166992 12.484502792358398
23.13913345336914 50.0245361328125 12.577260971069336
24.18857192993164 50.83485412597656 12.739408493041992
24.771238327026367 47.396446228027344 12.294942855834961
-13.080546379089355 37.593772888183594 3.1128851026296616
42.76338577270508 45.70650100708008 12.51926040649414
23.549793243408203 50.61175537109375 11.665755271911621
24.669218063354492 50.36837387084961 11.430546760559082
27.65492820739746 48.30329513549805 11.898165702819824
22.931842803955078 52.19733810424805 12.320494651794434
20.397363662719727 50.37622833251953 11.548065185546875
20.368621826171875 49.26533508300781 10.906781196594238
22.89441680908203 47.40080642700195 11.517487525939941
24.06377410888672 44.19960403442383 11.27761173248291
38.73191833496094 45.37955856323242 11.712787628173828
25.903980255126953 50.45361328125 11.613724708557129
39.40642166137695 49.016136169433594 12.210295677185059
22.56319808959961 47.817161560058594 11.255439758300781
42.954097747802734 44.197486877441406 11.5227632522583
21.163766860961914 49.95749282836914 10.89360761642456
44.81774139404297 47.8207893371582 11.481145858764648
23.728618621826172 50.02024459838867 10.934585094451904
42.67394256591797 42.036582946777344 10.909347534179688
39.55108642578125 47.787254333496094 11.325322151184082
22.112890243530273 50.96746063232422 10.901020050048828
46.5279655456543 39.658775329589844 10.902797222137451
46.44304656982422 39.384029388427734 10.8027663230896
22.79140853881836 50.40663146972656 10.476656913757324
22.634748458862305 45.71431350708008 9.1007719039917
22.243432998657227 49.513465881347656 9.591727256774902
39.10558319091797 47.18727493286133 10.256327152252197
41.495121002197266 41.21440887451172 10.459064483642578
24.14230728149414 46.00028610229492 9.698273658752441
24.945573806762695 49.00470733642578 9.08063554763794
26.719038009643555 51.40119934082031 10.306899070739746
40.159542083740234 45.813934326171875 9.915813446044922
20.01487159729004 49.4134407043457 13.701116561889648
22.494234085083008 45.80049133300781 13.471272468566895
25.336437225341797 46.79389190673828 12.11277961730957
26.70969009399414 45.78255844116211 13.526063919067383
24.739456176757812 20.416133880615234 0.6555707454681396
26.651111602783203 46.56642150878906 13.345977783203125
28.44973373413086 47.32476806640625 13.587834358215332
27.296218872070312 47.84505844116211 12.619915962219238
46.208396911621094 43.25700759887695 13.57747745513916
23.495820999145508 46.00370407104492 12.880724906921387
27.26182746887207 44.98533248901367 12.827089309692383
38.200927734375 48.5899772644043 13.304210662841797
40.62605285644531 44.791629791259766 13.032150268554688
37.546714782714844 41.82125473022461 12.862640380859375
25.224775314331055 46.17005157470703 11.063127517700195
41.925662994384766 38.40886306762695 12.30095386505127
45.782371520996094 39.2388916015625 12.51000690460205
24.967876434326172 44.962093353271484 12.091973304748535
40.08528137207031 40.832462310791016 11.94153118133545
42.14933395385742 44.61629104614258 12.439459800720215
42.63386154174805 40.603912353515625 12.19753360748291
26.049362182617188 43.19975662231445 11.701820373535156
25.064306259155273 44.04863357543945 11.70300579071045
42.7834587097168 43.82564926147461 11.9212007522583
21.457612991333008 48.19898986816406 10.437710285186768
25.096946716308594 44.852203369140625 11.507134437561035
25.306791305541992 44.745880126953125 11.294320106506348
24.671598434448242 51.55272674560547 10.637412071228027
43.924713134765625 38.81614685058594 11.547566413879395
22.526573181152344 50.18243408203125 9.767340660095215
23.738740921020508 43.9898681640625 10.897254467010498
42.55302429199219 37.354122161865234 11.059077262878418
23.133848190307617 43.57375717163086 10.649892807006836
37.32600402832031 40.59811782836914 10.711037158966064
40.18841552734375 40.16957473754883 10.888046264648438
25.379840850830078 47.73955154418945 10.262126922607422
28.130447387695312 46.84013366699219 10.299102306365967
19.52520751953125 47.829551696777344 9.43077278137207
42.74300765991211 38.401161193847656 10.707406520843506
46.37959671020508 39.41719055175781 10.852551460266113
24.93750762939453 44.76115798950195 10.510207176208496
22.330039978027344 45.40428924560547 9.11796760559082
24.175077438354492 49.96705627441406 8.917774677276611
45.736572265625 37.99932861328125 10.550132751464844
44.961727142333984 43.24951934814453 10.587357997894287
25.33047103881836 45.60609817504883 9.099730014801025
42.09209060668945 38.81000900268555 10.200326442718506
40.35478973388672 39.797786712646484 9.914293766021729
43.18783187866211 44.767765045166016 13.114398956298828
21.88239097595215 49.964599609375 13.109108924865723
23.11894989013672 48.80862045288086 13.467777252197266
38.795501708984375 48.82223892211914 12.053756713867188
42.29961013793945 44.83382797241211 12.487164497375488
39.55638885498047 48.00749588012695 12.122089385986328
39.3381462097168 46.743507385253906 10.11130142211914
40.274375915527344 48.97877883911133 9.756115913391113
42.25687026977539 45.35935592651367 10.158636093139648
-32.21874237060547 30.207433700561523 6.0487518310546875
42.52189636230469 44.78295135498047 13.086634635925293
38.563140869140625 43.82904052734375 12.439082145690918
23.038782119750977 49.610347747802734 13.682950973510742
23.597253799438477 49.42216873168945 12.63222599029541
21.040813446044922 49.690372467041016 12.927425384521484
22.78217315673828 46.118873596191406 14.362200736999512
23.1292724609375 45.43937301635742 14.499639511108398
40.34865951538086 46.41293716430664 13.480433464050293
-30.442541122436523 35.476470947265625 6.255464315414429
27.141193389892578 50.18635940551758 12.331216812133789
45.734493255615234 44.03559875488281 13.14071273803711
25.113250732421875 44.763336181640625 12.098045349121094
42.82564926147461 45.94431686401367 12.717975616455078
40.766361236572266 43.435157775878906 12.666351318359375
40.8745231628418 44.41482925415039 12.666029930114746
25.543846130371094 46.95734786987305 11.081592559814453
22.63379669189453 48.431732177734375 13.188481330871582
23.389842987060547 45.96491241455078 11.394086837768555
42.81732177734375 40.366146087646484 11.823143005371094
23.73109245300293 48.50470733642578 11.693422317504883
25.113767623901367 47.76142883300781 10.477180480957031
45.37295150756836 39.38314437866211 11.636152267456055
42.69329071044922 39.53413391113281 11.531435012817383
42.15980911254883 44.985469818115234 12.095812797546387
43.06245803833008 48.23308563232422 10.474772930145264
22.560564041137695 44.21100616455078 10.106021881103516
21.326642990112305 47.606224060058594 9.746803283691406
27.138996124267578 48.59680938720703 10.48681640625
21.34270477294922 46.17854690551758 11.909872055053711
39.61292266845703 45.40238952636719 9.53978157043457
39.11815643310547 40.49343490600586 9.361888408660889
46.681358337402344 44.35824966430664 10.624741554260254
41.74876022338867 44.782352447509766 10.352165222167969
25.37455940246582 46.36536407470703 9.052826881408691
-16.095178604125977 36.86077117919922 4.101041793823242
21.57525634765625 49.02662658691406 10.910980701446533
28.060077667236328 47.355194091796875 12.655712127685547
28.37782096862793 47.401424407958984 13.84799861907959
23.50855827331543 44.3961067199707 13.860764503479004
24.50148582458496 44.18425750732422 12.698080062866211
42.12790298461914 38.383609771728516 13.088449478149414
42.557857513427734 41.178897857666016 12.298354148864746
38.957401275634766 40.597076416015625 12.93454647064209
21.521394729614258 44.80854034423828 11.71977710723877
24.580976486206055 45.236419677734375 13.528303146362305
46.708709716796875 43.94026565551758 13.226020812988281
37.50677490234375 47.584259033203125 11.365900993347168
41.03446578979492 43.745445251464844 11.79819107055664
28.2462215423584 48.162960052490234 13.027891159057617
-34.27499771118164 34.361900329589844 8.573626041412354
41.38914108276367 44.615966796875 12.043590545654297
26.86981964111328 42.8135871887207 10.419102668762207
22.75306510925293 43.621849060058594 10.327805042266846
20.870330810546875 47.02534484863281 10.563376426696777
42.351802825927734 39.645294189453125 10.537220478057861
37.494937896728516 38.8338737487793 9.867214679718018
23.330772399902344 45.37503433227539 9.66353178024292
46.349632263183594 38.408226013183594 11.075757026672363
41.25555419921875 45.47293472290039 11.4884033203125
42.90512466430664 40.001441955566406 10.517581939697266
45.13786315917969 40.38368225097656 10.630224704742432
24.171049118041992 50.88251495361328 10.614185810089111
45.08045959472656 40.006309509277344 10.54991340637207
46.65534973144531 39.03030776977539 10.572609901428223
46.1436882019043 38.01793670654297 10.52901554107666
43.47649383544922 47.775211334228516 17.421998023986816
43.80189514160156 45.816680908203125 14.100460052490234
21.713987350463867 48.008113861083984 11.906145095825195
21.109373092651367 48.998958587646484 12.725116729736328
41.92082214355469 45.79460525512695 15.294445037841797
44.739261627197266 47.68861770629883 11.945478439331055
23.563274383544922 50.0200309753418 13.682107925415039
42.523292541503906 44.04131317138672 11.120327949523926
42.94783401489258 46.93682098388672 15.130398750305176
21.783525466918945 52.724464416503906 9.173246383666992
22.32720184326172 45.748905181884766 14.687994003295898
23.09109115600586 45.560577392578125 14.555598258972168
42.261959075927734 37.231632232666016 13.852678298950195
44.54221725463867 44.33404541015625 10.579702854156494
38.37020492553711 45.35379409790039 15.521531105041504
42.512779235839844 40.17953109741211 13.701360702514648
22.912748336791992 50.37519073486328 12.679032325744629
20.897850036621094 48.17035675048828 12.471879959106445
39.85724639892578 43.007423400878906 13.024641036987305
27.505762100219727 49.61271286010742 12.338508605957031
39.351287841796875 45.64316177368164 14.310245513916016
42.347930908203125 45.02045822143555 17.530146598815918
24.55342674255371 47.226287841796875 13.935894966125488
22.503612518310547 51.0449333190918 11.992149353027344
27.10384178161621 47.57978820800781 13.506675720214844
21.910810470581055 50.84288787841797 13.540508270263672
22.324542999267578 48.35029983520508 11.877741813659668
24.076690673828125 48.5591926574707 12.90899658203125
40.718753814697266 44.78249740600586 14.290252685546875
23.35297966003418 46.23607635498047 15.52854061126709
41.967769622802734 47.024715423583984 17.629358291625977
23.93221664428711 49.789573669433594 11.099632263183594
20.3483943939209 48.8362922668457 12.780180931091309
20.88259506225586 48.403350830078125 12.520240783691406
-26.616104125976562 18.084728240966797 4.296060681343079
40.88703155517578 45.786678314208984 12.00908088684082
41.72616195678711 44.21088409423828 13.109402656555176
39.402931213378906 44.754730224609375 14.85617733001709
41.93140411376953 45.80174255371094 18.14801788330078
42.28976058959961 42.60255432128906 16.093257904052734
-28.49270248413086 35.94652557373047 1.618119239807129
21.544788360595703 54.61857986450195 5.725567579269409
40.90782165527344 46.23745346069336 11.668431282043457
23.288244247436523 50.02467346191406 12.286172866821289
39.53154373168945 47.57575988769531 11.490114212036133
42.496212005615234 43.820674896240234 11.725605964660645
-20.428607940673828 37.56806945800781 2.4749115705490112
38.814964294433594 41.781089782714844 13.745611190795898
24.452653884887695 47.727657318115234 15.64629077911377
42.52061462402344 42.38863754272461 15.372537612915039
40.95393753051758 42.590511322021484 15.51559829711914
39.160240173339844 47.6099739074707 16.142081260681152
43.33285903930664 43.43335723876953 14.140030860900879
38.07111358642578 48.015995025634766 12.837233543395996
24.078996658325195 45.36366653442383 9.544581890106201
22.71826171875 44.80470275878906 11.118016242980957
40.162559509277344 45.442543029785156 10.726279735565186
21.91018295288086 49.749481201171875 9.878606796264648
43.34109878540039 41.803260803222656 11.741947174072266
46.749794006347656 -31.378128051757812 0.9526128768920898
39.30028533935547 41.4247932434082 14.736980438232422
23.504579544067383 46.797279357910156 15.316868782043457
24.51462173461914 48.01144790649414 14.966520309448242
25.741792678833008 20.11771011352539 1.2235972881317139
24.079505920410156 46.001609802246094 13.12057876586914
26.180347442626953 49.40479278564453 13.29269790649414
38.902530670166016 41.372676849365234 13.888419151306152
45.394203186035156 46.73007583618164 14.73456859588623
27.764509201049805 50.652565002441406 11.717153549194336
41.07249069213867 42.04591369628906 13.888436317443848
39.69352340698242 40.45430374145508 13.574495315551758
22.00143814086914 19.229490280151367 1.2508043050765991
27.444705963134766 45.91443634033203 14.622900009155273
23.510400772094727 43.37669372558594 13.874198913574219
24.638715744018555 43.074214935302734 12.80847454071045
46.09459686279297 46.59065246582031 14.680831909179688
24.678388595581055 46.49886703491211 15.842828750610352
40.7431755065918 43.95343017578125 18.099512100219727
44.704647064208984 38.62290954589844 13.28115177154541
21.965152740478516 43.91496658325195 13.888404846191406
22.947486877441406 43.99765396118164 13.708390235900879
21.346223831176758 45.06557846069336 13.498747825622559
22.913198471069336 45.20524215698242 13.529980659484863
42.05281448364258 38.95375442504883 12.879195213317871
27.266128540039062 48.80785369873047 12.289590835571289
24.686656951904297 43.30516815185547 13.737434387207031
41.164405822753906 44.19655990600586 17.27646541595459
43.325870513916016 42.63141632080078 17.4835147857666
40.205955505371094 38.619693756103516 15.159443855285645
38.741390228271484 39.586795806884766 13.451900482177734
21.923734664916992 45.93305587768555 13.358559608459473
21.92336654663086 45.80841064453125 13.091774940490723
20.597915649414062 46.22244644165039 12.25092601776123
28.297082901000977 46.18130111694336 13.301116943359375
41.15137481689453 39.009605407714844 12.281402587890625
23.165273666381836 46.62379837036133 13.71247386932373
39.68971633911133 40.72660827636719 15.798637390136719
24.17815399169922 44.94712448120117 15.427308082580566
26.620437622070312 47.96425247192383 15.365156173706055
42.70048904418945 41.4084587097168 16.270426750183105
47.75762176513672 -31.65765380859375 1.2475440502166748
40.35146713256836 38.40367126464844 13.490787506103516
45.96507263183594 43.840824127197266 13.484078407287598
21.510732650756836 45.37179183959961 12.50494384765625
22.34097671508789 45.40506362915039 12.476393699645996
20.05436134338379 46.13676071166992 11.524186134338379
-32.91569519042969 33.79496383666992 9.46748161315918
41.93052291870117 38.616634368896484 12.894195556640625
29.130598068237305 21.176311492919922 0.6756465435028076
25.567506790161133 46.95148468017578 15.626357078552246
41.928524017333984 42.81062698364258 17.470312118530273
45.306129455566406 45.5770149230957 17.308568000793457
24.343135833740234 44.59402084350586 14.479841232299805
40.1654052734375 38.37530517578125 15.283864974975586
-2.864264488220215 13.389107704162598 0.9772958755493164
25.946331024169922 47.58948516845703 13.489256858825684
41.892372131347656 39.00885009765625 13.28148365020752
44.12771987915039 38.602718353271484 12.287906646728516
22.735136032104492 43.57935333251953 11.63095760345459
20.55784034729004 46.40602493286133 10.941326141357422
26.309350967407227 42.006778717041016 11.150208473205566
26.150226593017578 41.01713562011719 10.840903759002686
24.635913848876953 43.552490234375 13.002693176269531
41.70527648925781 39.0507926940918 13.831250190734863
39.24576187133789 40.11179733276367 15.762564659118652
42.290775299072266 42.612762451171875 17.089990615844727
41.91638946533203 43.02250671386719 17.90321636199951
26.319067001342773 47.99932098388672 15.372082710266113
39.932342529296875 39.99356460571289 15.538614273071289
45.34097671508789 45.61552047729492 16.705699920654297
25.573978424072266 46.79690170288086 15.480003356933594
-12.690546035766602 36.845890045166016 6.123257637023926
28.128416061401367 45.820125579833984 13.68641185760498
27.56869125366211 45.77682876586914 13.740483283996582
39.49342346191406 41.01012420654297 15.109967231750488
40.18791580200195 40.213478088378906 14.07723331451416
26.96903419494629 45.35898208618164 14.123285293579102
44.942413330078125 43.99484634399414 13.693921089172363
27.885709762573242 48.377864837646484 11.534605026245117
21.520566940307617 44.98036193847656 9.432389259338379
23.668596267700195 42.781681060791016 9.894708633422852
43.89828872680664 38.0234375 11.633099555969238
39.67905044555664 40.63508987426758 12.73387336730957
25.506206512451172 42.84937286376953 12.270865440368652
42.717933654785156 37.42783737182617 14.46845531463623
28.119892120361328 46.812992095947266 14.105627059936523
26.969039916992188 46.58943557739258 14.481083869934082
23.948413848876953 44.61859893798828 15.090263366699219
43.314598083496094 42.55158233642578 17.716917037963867
42.903255462646484 41.53683090209961 18.700271606445312
42.158443450927734 42.207496643066406 17.92411231994629
41.94217300415039 46.18614196777344 17.887868881225586
44.16021728515625 41.39647674560547 16.89387321472168
43.689430236816406 42.4068603515625 16.73391056060791
26.143083572387695 45.432456970214844 15.883565902709961
45.36290740966797 45.6196174621582 16.899858474731445
23.735252380371094 45.88185119628906 14.842500686645508
26.38817024230957 47.397335052490234 15.512324333190918
39.726348876953125 38.40639114379883 14.711277961730957
39.27951431274414 41.19274139404297 14.882469177246094
40.11640548706055 40.005836486816406 14.116156578063965
39.5614128112793 40.20497512817383 14.478403091430664
-32.44678497314453 32.36623001098633 4.296761989593506
37.18394470214844 41.392032623291016 13.654505729675293
39.014076232910156 38.9728889465332 14.224784851074219
26.968952178955078 46.55073928833008 14.681709289550781
39.773643493652344 39.26836395263672 14.10548210144043
39.933311462402344 39.6441535949707 13.899347305297852
25.754005432128906 43.795867919921875 13.472259521484375
28.532459259033203 21.545230865478516 0.6812763214111328
36.92822265625 41.39400863647461 13.488144874572754
23.99600601196289 44.81850051879883 12.157334327697754
21.041118621826172 45.08924102783203 6.533938407897949
-31.806596755981445 33.64607238769531 3.9159087538719177
20.369192123413086 49.204315185546875 12.698225975036621
39.15481948852539 39.9885139465332 13.135826110839844
24.27515983581543 50.43734359741211 6.706065893173218
39.586181640625 49.1811408996582 12.733259201049805
23.148252487182617 50.99051284790039 13.078140258789062
38.14607238769531 47.83634567260742 12.295562744140625
-16.69301414489746 37.015045166015625 2.6893103420734406
23.055240631103516 52.86245346069336 10.412683963775635
20.55593490600586 48.431007385253906 10.292137622833252
22.33237648010254 49.2039794921875 12.311952590942383
46.38179016113281 46.17345428466797 7.310941696166992
-17.243972778320312 37.20021057128906 4.518115401268005
43.27135467529297 46.0582160949707 10.024359226226807
44.395198822021484 43.946815490722656 10.771023273468018
40.57778549194336 44.97032165527344 10.074872970581055
44.33048629760742 45.354209899902344 10.540903568267822
20.05997085571289 48.36506271362305 7.28438663482666
23.805591583251953 53.986907958984375 9.665827751159668
43.18790817260742 44.75398254394531 9.745494365692139
39.222984313964844 44.559417724609375 9.30044174194336
22.351470947265625 53.88077163696289 4.722870349884033
38.382423400878906 44.052513122558594 13.110015869140625
23.70387077331543 47.565799713134766 11.86972713470459
26.181873321533203 51.950992584228516 11.841230392456055
21.893003463745117 49.21503448486328 12.496827125549316
23.574077606201172 46.98766326904297 13.12961196899414
20.963071823120117 48.019920349121094 13.126848220825195
38.00322341918945 47.817840576171875 12.880132675170898
24.317684173583984 51.42734909057617 12.08642578125
27.307710647583008 48.3916130065918 12.288312911987305
-30.855297088623047 29.311338424682617 2.8374556601047516
40.123172760009766 47.43427658081055 13.265409469604492
21.926355361938477 48.405914306640625 11.871489524841309
39.779823303222656 44.80789566040039 11.929851531982422
25.342451095581055 49.22111511230469 9.47781229019165
21.299915313720703 47.590415954589844 6.675159931182861
24.13140106201172 49.06786346435547 5.455114841461182
26.699304580688477 49.20384979248047 12.546021461486816
-17.69770050048828 38.430057525634766 10.32548475265503
25.18094253540039 47.61083221435547 12.437747955322266
39.68626022338867 45.39936065673828 11.711321830749512
40.924190521240234 49.13709259033203 12.729618072509766
42.41218566894531 38.1817741394043 11.992847442626953
39.548057556152344 44.80670166015625 12.046964645385742
42.76076889038086 43.817230224609375 12.248863220214844
26.081331253051758 50.41353225708008 13.087969779968262
41.181724548339844 46.16984176635742 12.471219062805176
27.769302368164062 50.96155548095703 11.85932445526123
23.930835723876953 45.961151123046875 12.722881317138672
26.134077072143555 49.41603469848633 12.909122467041016
42.550537109375 42.39006423950195 11.920533180236816
-14.061689376831055 37.9691047668457 5.02971339225769
40.135536193847656 40.81965637207031 8.71481466293335
24.132587432861328 45.59435272216797 6.088751792907715
20.54616355895996 54.40129470825195 5.498105764389038
23.003700256347656 50.32669448852539 10.677913665771484
44.38064956665039 47.9815788269043 11.68078899383545
25.541614532470703 49.822662353515625 10.217254638671875
26.76915740966797 50.641929626464844 10.509227752685547
26.790935516357422 51.22270965576172 10.512551307678223
24.52056884765625 50.84111022949219 10.503277778625488
23.18303108215332 50.008628845214844 12.312764167785645
26.746091842651367 47.80717468261719 12.112225532531738
20.328123092651367 46.40829849243164 12.107337951660156
-20.290985107421875 37.94234848022461 4.4670528173446655
23.21270751953125 45.780662536621094 11.935036659240723
19.930622100830078 49.39158630371094 11.700055122375488
41.02250671386719 38.5882682800293 8.481994152069092
41.336177825927734 44.58424377441406 7.139813423156738
20.589689254760742 47.76137924194336 4.3055338859558105
-32.083892822265625 32.997406005859375 2.034456431865692
37.38312530517578 41.51644515991211 10.106733798980713
39.744102478027344 41.58103942871094 10.952553749084473
24.210365295410156 45.91264343261719 11.094141960144043
41.436729431152344 45.631534576416016 10.95576810836792
21.750085830688477 46.18772888183594 11.103271484375
39.1354866027832 48.41101837158203 11.089816093444824
24.780900955200195 45.212493896484375 11.304466247558594
25.7257080078125 50.18989181518555 11.497912406921387
46.5887565612793 44.25638961791992 11.330809593200684
19.54560661315918 48.606014251708984 10.88517713546753
19.945247650146484 48.79692077636719 7.527475833892822
-33.01611328125 31.049867630004883 4.879565119743347
23.765443801879883 50.79356384277344 5.489286661148071
23.812305450439453 45.84690475463867 9.54427719116211
39.25556945800781 43.7634162902832 10.399311065673828
24.11629867553711 45.61572265625 9.89939022064209
23.18157196044922 51.41679763793945 8.752201080322266
19.712263107299805 49.00168228149414 10.295740604400635
21.703027725219727 48.12042999267578 8.716032981872559
40.71895217895508 49.27372741699219 10.493925094604492
47.37051773071289 43.99368667602539 10.460901260375977
-6.265536308288574 12.632648468017578 0.666163444519043
39.941871643066406 47.40530014038086 10.52159309387207
46.37858963012695 44.01986312866211 10.502561569213867
24.752717971801758 48.427677154541016 9.302619457244873
21.330055236816406 47.16432189941406 7.91484260559082
23.612905502319336 48.259098052978516 5.119553327560425
44.18140411376953 41.40736770629883 9.970342636108398
38.945316314697266 46.3956184387207 9.111904621124268
39.31544494628906 46.653236389160156 9.078672409057617
23.714242935180664 46.803375244140625 9.297834873199463
20.902109146118164 46.57130813598633 9.11428165435791
20.30244255065918 47.43572235107422 9.476908683776855
20.541872024536133 47.23851013183594 9.684488296508789
26.035940170288086 51.2696418762207 10.043798446655273
23.12782096862793 52.80809020996094 10.097570419311523
40.7093620300293 43.19397735595703 9.711575984954834
38.978492736816406 45.245704650878906 9.505825519561768
46.714576721191406 39.63954162597656 8.882281303405762
39.5978889465332 42.7515754699707 8.345702171325684
46.02888488769531 40.19443893432617 8.128291130065918
47.492374420166016 25.91353988647461 0.5300402641296387
21.165531158447266 52.4298095703125 5.282410144805908
36.329524993896484 40.85905456542969 13.119455337524414
36.9333610534668 41.19620132446289 12.891778945922852
42.208518981933594 38.00761795043945 12.051331520080566
25.938953399658203 45.7790641784668 12.9732027053833
38.363800048828125 41.763450622558594 12.720930099487305
24.351924896240234 43.44914245605469 12.808770179748535
21.393924713134766 44.41135025024414 12.072731018066406
21.74833869934082 45.785255432128906 13.12635612487793
26.517894744873047 42.61377716064453 11.502278327941895
21.944759368896484 45.56349563598633 13.293479919433594
25.606792449951172 42.014617919921875 11.483647346496582
37.76541519165039 40.81430435180664 12.463872909545898
59.74726104736328 -28.007661819458008 1.0087543725967407
36.39900588989258 41.23503494262695 12.561737060546875
42.73004913330078 38.83235549926758 12.509419441223145
24.18947410583496 45.032501220703125 13.3005952835083
28.13177490234375 47.791072845458984 12.495737075805664
36.961082458496094 41.60362243652344 12.302927017211914
26.313339233398438 44.00156021118164 12.670539855957031
23.333086013793945 43.40170669555664 12.096395492553711
28.080026626586914 47.109683990478516 8.250643730163574
27.279010772705078 43.516231536865234 6.751519203186035
-24.485544204711914 35.834293365478516 2.908594995737076
21.35312843322754 45.19975280761719 4.101855516433716
28.512746810913086 47.18578338623047 13.112590789794922
27.54149627685547 47.0147705078125 12.889932632446289
26.95267677307129 48.592002868652344 12.73253345489502
24.340543746948242 45.00227737426758 11.102499008178711
23.965587615966797 42.987117767333984 11.458523750305176
41.1198616027832 41.39483642578125 11.886550903320312
28.699504852294922 46.58418273925781 11.097606658935547
45.22874069213867 47.863182067871094 14.288200378417969
43.50864791870117 38.23404312133789 11.855557441711426
45.00998306274414 40.35470962524414 10.88145923614502
28.334049224853516 50.45063781738281 11.757417678833008
27.686954498291016 44.394386291503906 11.270331382751465
26.561792373657227 44.956298828125 12.49040412902832
27.155134201049805 42.782379150390625 11.289363861083984
23.719106674194336 43.79890060424805 12.50521183013916
22.341081619262695 45.799625396728516 12.694247245788574
43.61054229736328 38.61518478393555 11.729377746582031
27.57131004333496 48.229225158691406 11.73652172088623
41.368526458740234 40.24495315551758 11.714208602905273
38.95526885986328 39.413063049316406 11.50158405303955
25.308860778808594 45.414306640625 9.081465244293213
-16.643024444580078 38.94374084472656 7.43963623046875
22.56100082397461 44.65364456176758 5.240658283233643
29.325580596923828 42.99446105957031 5.113291263580322
41.529052734375 39.997867584228516 11.893628120422363
41.74794387817383 39.426998138427734 11.538405418395996
27.337900161743164 44.00032424926758 11.509926795959473
39.70999526977539 40.864723205566406 11.480182647705078
25.526691436767578 42.395931243896484 11.103188514709473
26.116073608398438 52.1729621887207 11.487378120422363
25.9447078704834 42.00830841064453 11.507726669311523
21.772838592529297 45.18349075317383 11.485125541687012
19.990726470947266 45.07581329345703 11.460556983947754
27.529552459716797 46.190799713134766 12.10096263885498
22.14638328552246 45.60512161254883 11.91357421875
42.98357391357422 37.995697021484375 11.300813674926758
26.132129669189453 49.3607177734375 11.062097549438477
20.31669044494629 45.46091842651367 12.056480407714844
45.335716247558594 38.839595794677734 11.247283935546875
21.29247283935547 47.418460845947266 11.236093521118164
39.37312698364258 39.79493713378906 10.907618045806885
45.25444030761719 37.74842071533203 9.903923988342285
42.825347900390625 39.646488189697266 8.799284934997559
41.430076599121094 37.365970611572266 7.009591579437256
-16.136552810668945 40.06114959716797 2.6425223350524902
43.315025329589844 36.97118377685547 5.334417343139648
42.52586364746094 41.18428421020508 11.088582038879395
24.5778865814209 43.40040969848633 10.053562641143799
25.775365829467773 51.95234298706055 11.335235595703125
24.03299331665039 45.08527374267578 9.57466459274292
43.73283386230469 36.60927200317383 10.696288585662842
23.13970375061035 43.61151885986328 10.909993171691895
28.311283111572266 51.38521957397461 11.487229347229004
25.345693588256836 42.590267181396484 11.080561637878418
27.558536529541016 44.406410217285156 11.285232543945312
28.15045738220215 52.354557037353516 10.307195663452148
-18.67513656616211 36.96527862548828 3.050540454685688
36.75376510620117 38.448246002197266 10.682360649108887
24.715457916259766 43.57950973510742 11.135208129882812
43.21503448486328 37.382301330566406 10.525570392608643
20.734630584716797 45.79888153076172 11.109599113464355
38.83192443847656 39.03193664550781 9.84619426727295
21.72900390625 47.68010330200195 11.7814359664917
42.580387115478516 38.247920989990234 7.377081394195557
27.885793685913086 43.51637649536133 6.1842052936553955
-32.88825607299805 33.244197845458984 9.943819522857666
45.72141647338867 39.77873229980469 10.73334789276123
26.765491485595703 43.022945404052734 10.304736614227295
25.523414611816406 50.195899963378906 10.510826110839844
23.133859634399414 46.21232223510742 9.2881498336792
22.138090133666992 45.42485427856445 9.4568510055542
26.12993621826172 41.4066276550293 10.310299396514893
45.7144775390625 37.2415657043457 10.250129699707031
25.436824798583984 41.94371795654297 10.441981315612793
19.734601974487305 45.553810119628906 10.326229572296143
44.79322814941406 39.40861129760742 10.333568096160889
25.705286026000977 49.00377655029297 10.68371868133545
26.712081909179688 42.80073928833008 10.45546817779541
46.52581024169922 38.41093444824219 10.502225399017334
42.584388732910156 40.222328186035156 10.172757148742676
19.54286766052246 48.799102783203125 10.293667793273926
42.82972717285156 39.67494201660156 8.915992736816406
40.80945587158203 38.272544860839844 7.7859907150268555
40.51186752319336 36.18080520629883 7.273338794708252
43.291114807128906 37.730552673339844 6.7840352058410645
21.66802215576172 46.51389694213867 4.755684971809387
39.5807991027832 40.99977493286133 10.093920230865479
37.755123138427734 38.61936569213867 9.021515369415283
-26.474708557128906 36.21113586425781 3.046447277069092
37.356040954589844 38.63810348510742 9.739543437957764
23.536813735961914 43.813785552978516 9.305883884429932
45.29694366455078 38.28120422363281 6.514460563659668
22.20933723449707 44.16096496582031 9.545778751373291
19.267667770385742 47.6402587890625 8.163557529449463
44.35296630859375 38.40141677856445 12.696680068969727
46.65141677856445 38.85712432861328 9.69409465789795
25.73358154296875 52.200927734375 8.705891609191895
24.745872497558594 44.397743225097656 9.967676162719727
41.34838104248047 40.79475784301758 9.679644584655762
21.579761505126953 49.191917419433594 9.895540237426758
38.959407806396484 40.60296630859375 9.329326152801514
38.942134857177734 38.78993606567383 8.890686988830566
44.96751022338867 38.09794616699219 8.635696411132812
-34.623870849609375 33.78067398071289 5.843263387680054
28.776439666748047 42.891700744628906 6.883486986160278
23.141061782836914 45.03844451904297 6.131508111953735
28.34727668762207 43.56486511230469 5.347093105316162
23.763202667236328 48.58311080932617 2.512812465429306
42.801361083984375 24.941356658935547 0.9686791896820068
45.95596694946289 25.7283992767334 0.9783229827880859
21.74115562438965 49.86061096191406 7.508532524108887
43.11740493774414 42.587013244628906 11.514249801635742
20.328670501708984 52.19630813598633 8.344720840454102
24.860584259033203 48.999908447265625 9.502785682678223
20.731761932373047 47.40742492675781 9.338691234588623
