1.712015 0.021812 1.093177 
-9.876462 -8.768000 2.269439 
-10.890330 -7.010839 1.450324 
7.155287 -6.133059 0.095378 
-1.445249 -5.512238 0.217431 
-2.533936 -10.272478 5.086664 
4.700417 -8.167565 1.419013 
-1.708658 -5.560369 7.253265 
10.425007 -8.500029 0.314864 
2.230903 4.038186 1.512110 
10.004773 -7.360429 0.978780 
8.869436 -8.036850 0.398292 
-11.125772 -7.885926 1.924186 
-1.301219 -12.900730 0.792633 
-10.693679 -8.243812 1.908225 
-9.261027 -8.540139 1.758088 
4.552562 -6.472784 0.399936 
-11.300684 -8.849012 1.278315 
-10.755541 -8.888854 2.320886 
4.359159 -4.862677 1.161139 
-10.707500 -8.678440 1.695210 
6.274690 0.186349 2.350717 
-10.080866 -8.641845 1.861202 
9.590919 -8.277932 0.748750 
7.089209 -4.883506 1.053245 
-10.892555 -7.836454 1.681980 
-0.216763 -6.012024 3.387725 
7.184609 -9.773150 0.029693 
-10.653622 -8.724060 2.351206 
-9.747053 -7.396143 1.741020 
-10.799026 -7.521513 1.011409 
-9.895577 -8.317547 0.950137 
6.267685 0.192860 5.326273 
10.884775 -6.296051 1.476481 
-10.833310 -7.531219 2.210987 
6.303011 0.002506 3.035558 
6.296561 4.352334 1.794656 
-9.782999 -9.161934 1.723834 
4.964944 0.095202 3.581243 
7.304097 -5.744349 0.751216 
-9.564157 -8.324660 1.540459 
-9.891587 -6.885556 1.082388 
4.524041 -8.255589 1.437474 
-6.754150 -14.233223 0.332165 
-10.124347 -8.606428 2.365546 
-9.943416 -6.756903 0.856824 
-11.149621 -8.312752 1.431245 
4.246283 0.094908 3.006363 
2.094819 3.990660 1.354123 
7.611809 -9.613128 0.622399 
10.720864 -9.027659 1.426899 
-1.571663 -5.341276 0.589578 
0.786062 -3.808557 7.190428 
6.520802 -5.345934 0.981241 
-3.283175 -13.360057 3.025608 
-10.271225 -8.173630 1.614352 
6.307964 4.434673 3.429178 
-9.649343 -7.724316 2.761297 
4.825099 -5.773429 0.734426 
-1.458746 -12.978998 6.744630 
4.012477 -7.654030 -0.132074 
-1.510290 -5.363508 4.804225 
6.279113 -5.834196 0.768625 
7.346822 -8.984402 1.016694 
-10.362734 -7.334146 2.332010 
-10.845530 -8.658536 1.448048 
9.681575 0.071890 1.784946 
-9.679406 -7.430285 2.125465 
-10.128762 -8.152543 1.878877 
-5.054884 -4.111220 1.641399 
-10.796036 -9.022755 0.797044 
-2.096486 -5.286073 4.098866 
0.098320 -5.521824 5.091398 
1.764331 -2.031325 5.098986 
-1.481938 -12.973097 5.133422 
6.037506 0.130830 4.422139 
-9.972492 -7.550780 3.690826 
8.916525 0.113967 2.410387 
-10.777721 -8.739196 1.884153 
-10.443968 -9.009486 1.285438 
-4.210302 -4.446157 2.321955 
7.578377 4.616060 5.019983 
6.693789 -0.454775 5.056309 
6.290877 4.339334 4.424581 
6.068641 -9.753456 0.429551 
7.175377 -8.261404 1.434117 
-1.487898 -5.381571 1.031626 
5.346658 -4.869004 1.160516 
-10.290673 -7.214346 1.296473 
-9.567232 -7.236187 1.055013 
10.494236 -6.944746 1.160516 
-10.174187 -8.475659 4.136834 
7.145317 -5.404800 1.016536 
-9.667127 -8.386691 1.871036 
7.611809 -10.009582 0.388468 
4.623627 -5.440688 0.995817 
7.591722 -9.140924 0.857044 
0.918516 -2.719158 5.063348 
0.982607 -4.965838 5.123681 
-1.657751 -5.355258 5.335579 
12.119722 4.977681 -0.087304 
-10.393001 -7.496916 3.866878 
6.563380 0.021033 4.816399 
-9.987739 -7.884655 1.679102 
6.014302 4.414240 7.207592 
5.639819 -0.249863 7.138820 
-1.579568 -5.629893 -0.109235 
-1.569775 -12.889990 2.777426 
6.130655 -6.047737 0.645337 
10.441736 -9.022982 1.189086 
-10.289557 -7.676757 3.092896 
-9.784480 -8.001734 1.939670 
6.728608 0.201378 4.743785 
-10.685766 -7.874121 1.815942 
4.569991 -9.406862 0.772787 
-11.080903 -7.450935 2.705335 
-5.779057 -14.013540 1.041577 
-0.211645 -10.183311 5.081523 
-10.819031 -8.267310 1.266806 
-5.953916 -14.038255 0.965427 
-1.632615 -4.381381 5.037352 
10.414127 -6.248754 1.273615 
5.203692 -9.193879 0.826471 
-10.527932 -7.989191 1.849274 
5.031672 -5.743446 0.751737 
-10.125032 -7.601006 3.539706 
6.093860 4.280948 0.506542 
-11.703735 -7.565307 1.394625 
-1.310593 -12.915352 3.905336 
-11.302908 -8.192358 0.904574 
6.314135 0.026162 0.772229 
5.852785 -8.601336 1.168576 
0.499026 -3.934094 7.161339 
-1.713252 -5.570947 0.129210 
6.277156 0.184247 0.423271 
6.303792 0.020267 -0.109235 
6.097768 4.546120 1.662636 
6.193366 4.555884 4.321698 
-10.086668 -6.524437 1.897081 
6.075711 4.532557 6.881116 
-1.401599 -12.977085 2.679719 
6.099536 4.546550 0.340042 
-10.053486 -8.022285 2.829213 
10.802341 -6.491764 1.500069 
7.089209 -9.741038 0.331305 
3.187569 -11.568470 0.839572 
-11.471522 -7.304055 2.607241 
0.932698 3.900820 0.527319 
-10.031597 -7.168119 3.020374 
-10.125112 -8.808091 2.730011 
-1.425589 -12.686016 0.998969 
4.288570 -5.813299 0.780689 
2.574898 -11.729486 1.314774 
-0.336512 -6.904238 5.053455 
-2.238751 -5.231369 3.983451 
11.156422 0.073560 0.670762 
7.283494 -4.576179 1.425659 
-10.237837 -7.204954 1.495458 
-9.259547 -7.802767 1.317087 
6.803767 -8.644506 1.212933 
5.878863 -8.253237 1.438833 
-10.755321 -7.842582 1.502042 
7.398110 0.395373 5.117541 
-1.334916 -12.943171 2.108548 
4.364489 -9.334089 0.745520 
-9.526321 -8.691300 2.595792 
5.601817 0.061709 4.074332 
7.147871 0.184983 4.859554 
-1.548105 -12.739975 2.619775 
-10.631497 -7.291374 3.339113 
6.449199 -8.378119 1.297450 
-1.287657 -12.862615 1.588533 
0.152636 -3.182502 5.145060 
-10.135893 -7.986355 1.741319 
-9.571987 -7.761080 0.906374 
10.686386 -7.159445 1.370310 
-9.714806 -6.792476 1.894149 
4.398796 -9.504045 0.647397 
5.007920 -9.215466 0.883289 
4.524730 -9.230985 0.874330 
-2.137840 -13.106859 4.794446 
-10.426828 -8.695995 3.054015 
-9.810201 -7.786122 2.242012 
10.390672 -7.962862 1.276657 
10.213981 0.098297 1.368162 
6.238068 0.211323 0.938212 
-1.671435 -5.363184 0.429145 
-10.331717 -8.221366 4.416137 
7.078042 -9.810850 0.539544 
6.298546 4.354547 0.143990 
-1.541586 -12.732924 4.821573 
-9.737155 -8.127580 1.475589 
-10.062744 -6.970673 1.158745 
-2.239831 -4.713675 5.057517 
-9.831588 -7.725928 1.307427 
-2.576168 -12.401790 5.044283 
9.313266 -8.002706 0.655089 
2.325216 -7.043470 1.261804 
6.053425 -0.007727 6.183586 
6.290564 4.484651 0.458650 
8.299523 4.596256 2.834015 
-10.253343 -6.782844 2.167381 
-1.564748 -5.342523 3.525885 
9.411884 -6.137773 0.624696 
-1.495015 -12.371178 7.120239 
-10.707054 -7.928877 1.039560 
6.274670 4.317398 3.807042 
-10.534747 -7.396584 2.037728 
5.602383 -5.524014 0.878426 
-10.107080 -7.516975 1.417417 
-0.786286 -5.906307 4.826210 
-1.565458 -12.899758 3.047296 
-1.286324 -12.853653 6.766387 
7.537755 -6.462910 0.379015 
4.167809 -4.675199 1.374000 
7.852486 0.074351 3.229958 
6.511598 0.048987 4.213594 
-10.415656 -8.278790 2.183363 
-10.403101 -7.680737 1.873994 
-1.009973 -5.721580 3.971958 
-11.023608 -8.128654 2.911636 
-1.309408 -12.913498 5.042497 
-1.793445 -12.980061 4.842654 
-1.507105 -10.295111 7.084909 
-1.554115 -12.989332 4.591564 
7.404121 0.205887 5.007921 
-10.094430 -8.462323 1.955833 
6.316223 0.030703 7.056597 
6.179303 -0.071017 4.615804 
-1.402925 -12.688080 2.795837 
-1.484022 -11.431044 7.085633 
4.205770 -5.460617 0.984311 
-11.141556 -8.237596 2.600163 
5.203478 -4.681360 1.364933 
-10.601497 -7.677063 1.840119 
6.441994 -0.008478 4.570386 
7.346626 -9.424838 0.762408 
6.137917 -0.066002 1.243087 
-11.111833 -7.873757 2.336975 
1.390700 -12.051636 2.227213 
-9.632810 -8.521334 2.691282 
6.841726 -4.983352 1.259859 
6.585371 -8.451346 1.160516 
-4.034911 -4.536402 2.461962 
10.530264 -8.178267 1.359323 
4.929716 -1.936903 5.078042 
7.325353 -5.346737 0.980778 
-0.456122 -6.206317 5.096658 
9.314781 -5.928645 0.635899 
-1.443313 -5.499987 0.417580 
-1.429682 -10.481684 7.134973 
6.298273 4.353974 7.071805 
6.073924 -0.031188 6.767876 
7.316964 -9.169452 0.909855 
-5.517906 -3.992961 1.288228 
-9.851691 -8.419044 2.531070 
6.238891 4.388579 7.253265 
-10.670044 -8.155187 1.005234 
6.093186 -0.045630 3.691041 
-9.778311 -7.812168 3.237810 
7.456379 3.427246 5.035765 
10.274211 -5.575691 1.140332 
3.441352 -7.476171 0.361101 
-10.372173 -8.751465 0.816486 
-9.793309 -8.226896 3.396482 
10.465346 -7.731684 1.160516 
6.062424 3.490645 7.177667 
-10.908597 -7.456936 1.900144 
-9.582321 -7.271533 1.252128 
10.832194 -8.398405 1.524680 
6.018531 4.447150 3.523490 
5.178227 -4.536207 1.518019 
6.040632 0.016269 6.575195 
7.474091 3.991125 5.138214 
-10.479604 -8.237965 2.003953 
6.067646 0.177429 1.656353 
-0.281989 -10.360135 5.141354 
4.167809 -5.245963 1.072024 
10.563074 -8.633812 1.382670 
-10.729980 -7.353309 2.739041 
-1.471306 -12.976451 5.347700 
-0.283366 -6.040314 5.215347 
5.363984 -9.999614 0.361279 
-3.829162 -4.593031 2.632640 
6.097539 4.545809 0.553898 
5.373803 4.432049 4.976740 
-9.572324 -7.977014 0.871424 
6.055433 -0.010456 2.375424 
-1.707073 -5.395394 5.145051 
-1.497811 -5.373575 2.681625 
-11.036827 -8.925820 1.876615 
8.526473 0.063722 2.668935 
4.567745 -9.584066 0.601195 
-10.599562 -8.846103 0.832688 
5.160963 -9.585235 0.669803 
9.736425 -7.779181 0.827922 
6.110594 4.272608 5.131215 
9.589144 -6.149307 0.727134 
5.907185 -1.130644 5.036146 
4.616371 -4.862646 0.266662 
-10.212944 -8.479421 1.469886 
-2.654242 -5.659142 5.043523 
-10.009473 -7.658402 3.952628 
-1.561882 -5.632472 2.830898 
-9.892945 -7.531350 1.048093 
-10.868784 -7.932947 2.067009 
-10.496239 -7.719130 1.232470 
-10.756834 -9.111012 1.290329 
-10.333250 -7.521730 3.493375 
10.503227 -6.712056 1.164856 
10.653999 -6.525025 1.345476 
7.087541 -4.681677 1.364750 
-1.312108 -12.917709 5.489368 
6.321150 0.053755 7.250950 
5.534131 0.083848 4.963436 
6.427617 -8.239183 1.446946 
2.775537 4.051909 1.923130 
10.004888 -6.254733 0.968149 
6.964439 4.521997 3.852427 
5.013433 -5.354048 0.976557 
-9.513958 -7.571624 1.882694 
-10.204697 -8.077059 3.382613 
-1.428798 -5.518958 4.366192 
-1.574126 -12.876672 1.685103 
-1.601576 -5.340438 1.200663 
6.013484 4.422638 4.106683 
6.233529 0.212774 1.533898 
6.298629 4.469188 0.875142 
10.366203 4.814530 1.282946 
4.025994 0.039246 2.868866 
5.947728 -9.883204 0.497770 
-10.848580 -8.545182 1.971712 
6.289723 4.485318 5.668714 
-9.821493 -7.443795 1.996766 
-2.900589 -5.000714 3.445093 
2.296588 -1.722653 5.143229 
-1.469875 -12.690451 6.421572 
-0.767577 -3.795476 5.035588 
-10.181324 -7.561395 3.287882 
3.803809 -7.560634 0.049770 
5.988444 -9.377872 0.720242 
-10.141979 -7.819355 3.485732 
-1.352574 -5.252582 7.145897 
6.140641 4.265919 4.845273 
6.034014 -5.844969 0.693123 
-9.357948 -8.037573 2.455215 
-9.467123 -8.447906 1.296391 
-9.969779 -9.210205 2.467367 
-9.889378 -7.289588 2.331069 
0.564148 -2.927292 5.040909 
-1.705786 -5.580904 4.135972 
-1.444334 -5.466698 -0.101422 
-10.416346 -6.832139 1.907580 
-9.754835 -7.106064 0.969875 
3.344345 -1.002768 5.046586 
-1.317706 -12.741055 7.169060 
10.489357 -7.539681 1.176332 
-7.208871 -3.281188 -0.116622 
3.925941 -11.426277 0.235684 
-1.605659 -5.340729 6.541711 
-1.706981 -5.579551 0.355492 
-10.385729 -7.726085 4.284922 
-10.846199 -8.098350 1.084949 
-1.561715 -7.239458 7.082050 
-2.044944 -4.669137 5.041783 
5.792835 0.176552 4.654232 
6.016041 -6.233011 0.509662 
-1.704895 -5.393770 1.001912 
6.028871 4.346020 1.584547 
-0.946291 -5.611341 4.766015 
-10.861366 -8.152906 2.465909 
2.536355 -7.109344 1.123647 
-11.290448 -9.292620 1.345776 
6.081343 0.190051 2.244827 
3.157286 0.077292 2.166950 
4.330576 -6.431518 0.354479 
-9.986934 -7.860387 1.259534 
4.224495 -2.442833 5.140088 
4.851966 4.349574 5.235195 
7.175816 4.492295 3.681593 
-10.520048 -8.065297 2.951117 
-1.311747 -12.917150 2.836207 
-11.497039 -8.679682 1.906351 
-10.457445 -8.335384 1.621949 
5.381441 -4.584367 1.420932 
-10.034886 -8.362968 1.099593 
6.041500 0.140193 5.724807 
-1.230771 -5.699463 4.821115 
6.257172 4.524243 2.108569 
-9.500146 -8.440404 0.769358 
-5.891404 -3.818740 0.953856 
-10.770254 -8.292831 0.898684 
6.764590 0.028095 4.669574 
6.155810 4.246493 7.136204 
-10.429047 -6.829454 1.372860 
6.045923 0.147179 2.859409 
-1.526945 -5.354216 6.855072 
5.787724 0.048615 4.203786 
-10.534870 -8.175097 1.739149 
6.266448 4.308242 1.338401 
-1.664668 -5.616047 1.564929 
6.893633 -4.692304 1.427896 
4.690409 -4.934241 0.629547 
-10.668915 -8.149498 2.210392 
-11.093985 -7.507440 0.922352 
-11.495076 -7.985643 1.874273 
10.796903 -6.749051 1.430137 
-9.866654 -9.251377 2.873165 
4.617451 -8.542552 1.234223 
-1.928344 -12.970556 4.121555 
-10.285357 -7.668586 4.026241 
7.674238 0.085920 3.305856 
3.389956 0.085964 2.349949 
-10.223756 -7.745433 1.326108 
4.612659 -4.862646 0.456849 
6.096219 4.280059 0.826780 
-10.560989 -8.781709 3.223773 
-11.297571 -7.605267 0.906167 
-9.977906 -9.080009 1.782367 
-10.421450 -8.059626 2.345171 
-9.437353 -7.862197 2.425033 
6.336521 -5.387730 1.026392 
10.666056 -8.809982 1.374541 
-10.156332 -8.164470 3.784840 
6.218844 -0.064687 6.030357 
6.297438 -0.006296 3.237524 
6.022821 4.463937 1.429127 
-1.739049 -5.491654 6.528944 
6.124991 -0.061966 5.852847 
7.108636 0.084020 5.037562 
7.349060 -8.294259 1.345867 
-10.375222 -7.680343 3.793808 
6.166411 0.224358 3.976513 
-2.705657 -5.021706 3.558098 
7.605180 0.151298 5.206262 
-9.321281 -7.192637 1.646993 
-10.543217 -6.751711 1.201437 
4.368145 -2.353415 5.053357 
5.879633 -6.436970 0.351331 
6.153178 3.659600 7.153550 
-10.364175 -8.392257 4.303496 
-11.666693 -7.142574 1.489318 
5.097977 -5.065563 1.212395 
6.930260 -5.848235 0.691238 
-1.663211 -5.616693 3.463815 
7.457089 -5.874030 0.676344 
7.306642 0.112773 3.625104 
-10.045067 -8.798245 2.517853 
-4.916996 -4.199216 1.808457 
4.590409 -4.951382 0.797818 
-7.120766 -14.358019 -0.013189 
-1.488158 -12.660531 7.119014 
-2.734765 -5.354669 5.123024 
-10.238087 -7.156583 3.033717 
6.291482 4.400379 -0.109235 
1.365610 -4.621539 5.035274 
7.106749 -8.077427 1.471055 
7.166147 -6.467509 0.386979 
-1.568062 -12.772257 1.933515 
-1.480489 -12.972562 1.029326 
-1.566478 -9.276889 7.128812 
-1.452636 -12.686501 0.378538 
6.292509 4.344356 2.571073 
10.054989 -8.305169 1.086189 
-10.137454 -8.859809 0.825378 
-1.701762 -5.585964 7.046958 
-9.330813 -7.570262 1.259832 
10.731819 -8.605911 1.479811 
5.207887 -9.058750 0.973769 
4.690409 -8.451881 0.747059 
-1.284961 -12.839648 6.981112 
-1.493171 -12.968848 4.409398 
4.366336 -4.684045 1.363383 
-9.999264 -7.687661 3.196220 
-1.449225 -12.979965 6.956057 
6.063756 -0.019488 1.634608 
-9.100779 -7.972367 1.321495 
-10.262505 -7.790250 0.636932 
7.342954 -5.578901 0.846737 
-11.091751 -8.116169 0.987483 
-10.664594 -8.062164 4.218295 
-9.595394 -8.225573 1.378196 
-9.838665 -9.020887 2.855388 
-9.083073 -7.784066 2.309182 
6.028998 4.345824 1.132707 
3.871226 -1.632049 7.175787 
6.618972 -5.597371 0.836074 
6.472188 4.378855 4.782223 
4.595973 -8.542521 0.608209 
-10.045908 -8.642485 3.736317 
-11.256302 -8.088353 1.911527 
-6.457679 -3.572248 0.494769 
9.551988 -5.668830 0.770318 
-1.443296 -5.485489 3.734519 
6.034957 0.121010 5.509681 
6.104928 0.206098 6.596289 
7.352900 -9.633885 0.641715 
-10.254560 -8.887440 2.880422 
2.012541 -6.888176 1.561680 
-10.527358 -7.413190 1.390179 
6.301101 4.361273 2.318143 
-2.575224 -11.149677 5.035192 
-1.572445 -5.393228 7.253265 
-0.338209 -6.666566 5.118489 
7.422983 1.705572 5.040094 
5.403162 -5.258290 1.101124 
-1.521377 -12.951497 5.532605 
-10.553419 -7.978722 1.140080 
-9.606956 -7.616100 3.608847 
9.195801 -8.861924 0.429551 
-1.486053 -12.970786 3.958268 
4.995733 -9.021471 0.995293 
-0.299753 -8.533048 5.039709 
-1.640246 -5.348500 5.613372 
5.128635 -10.038423 0.408155 
6.192298 0.223255 0.136477 
-1.294898 -12.885661 0.080976 
-10.502399 -7.616066 3.532139 
6.193616 0.215746 7.253265 
-1.578529 -12.807125 0.271073 
-2.340759 -13.154151 4.879221 
6.562227 -4.567922 1.430427 
-10.320123 -7.737823 3.451391 
-10.791895 -7.208596 1.903148 
6.827622 -6.133011 0.445454 
3.158225 -2.034341 7.109369 
7.089209 -6.202044 0.271814 
3.042400 -2.169399 7.192277 
-9.405252 -9.314024 1.783081 
-9.734160 -8.212289 1.099373 
6.907628 -6.017495 0.593515 
-9.807961 -8.865817 2.418063 
7.003059 -6.204717 0.529551 
6.150992 -0.069861 6.426486 
-9.694426 -8.462550 0.847522 
4.428494 -5.920828 0.649326 
-10.851242 -8.030970 4.135345 
-3.126577 -13.304139 3.122319 
3.391510 -2.994350 5.118788 
-1.509428 -5.610131 3.275453 
-2.636495 -8.008821 5.145840 
-9.661693 -7.651089 3.348591 
-10.193905 -7.005453 1.986464 
5.707184 -5.303247 1.005886 
-0.268286 -9.997437 5.035185 
-10.239977 -7.533361 2.552383 
-10.837060 -8.342363 3.001161 
-1.660275 -5.617993 3.924776 
6.025734 4.469671 2.364341 
-11.344973 -8.296917 1.920077 
-1.491709 -12.968987 1.929227 
-1.568280 -5.341970 3.916837 
-9.623680 -7.914108 2.503803 
1.580768 -12.039162 2.131546 
6.820117 0.109142 3.977435 
-10.257960 -7.971123 0.765933 
5.431614 -4.842969 1.340909 
6.610987 4.453125 4.105233 
6.061740 0.171985 5.016191 
-2.595563 -8.663152 5.138847 
5.888858 4.490587 4.608011 
-10.237380 -8.345219 2.040575 
11.906996 0.089607 0.133284 
10.767556 -7.743402 1.422816 
3.840625 -2.728018 5.143342 
-10.201082 -7.544461 1.884132 
-1.566879 -12.769249 3.259621 
-10.260590 -7.643089 1.557005 
-9.231497 -8.176572 2.384202 
-10.027171 -7.475063 1.834600 
6.306231 0.006498 4.794268 
-1.135252 -4.041944 5.035693 
-3.914078 -13.502632 2.563427 
-10.185855 -7.850461 2.939711 
9.509301 -5.942260 0.679040 
-9.414306 -8.105484 1.388374 
6.177651 4.559203 5.911541 
-2.599362 -11.738306 5.128035 
4.781925 -5.603157 0.832733 
-1.474040 -5.577306 4.171614 
7.564749 -4.675139 1.368525 
-0.407520 -12.430569 4.982998 
5.367579 -8.672363 1.127568 
-9.136383 -8.047123 0.874028 
4.924963 -10.017818 0.420050 
-10.439813 -8.248383 3.995066 
-2.639843 -13.281446 5.148152 
-2.054439 -13.016999 3.963139 
2.580391 0.033812 1.735360 
4.566577 -4.691119 1.359299 
10.415257 -6.000714 0.955009 
6.220956 0.216699 3.350164 
-10.526016 -8.439167 1.860767 
-10.627526 -8.946892 1.326899 
-0.253027 -9.075346 5.112309 
4.167809 -8.995576 1.002863 
6.024004 4.357585 6.773838 
-10.615747 -8.670022 1.441376 
-9.561003 -7.178772 1.635559 
-10.788389 -7.639720 1.753036 
2.429294 -2.682578 7.135745 
6.118522 -0.059285 -0.091998 
9.904635 -6.845815 0.915995 
-0.944843 -12.728054 4.118990 
10.513572 -6.096610 0.228206 
-10.438101 -9.284206 0.805204 
10.792279 -6.961562 1.429524 
4.184870 -8.064398 1.478577 
7.713885 4.541420 3.309183 
-9.651163 -7.586240 2.898630 
4.630993 -8.495558 0.026680 
6.061120 0.171182 2.043359 
6.258447 0.199382 6.123466 
3.049211 -1.176616 5.074419 
-10.851397 -7.923094 3.640707 
6.337489 -8.985723 1.015931 
6.290238 4.328556 4.683876 
-9.788289 -8.645387 1.905713 
-1.100227 -12.704212 4.812203 
6.518201 -9.319970 0.822954 
-9.582964 -8.314194 2.708551 
-10.050889 -8.810410 1.307236 
-9.327765 -7.820994 1.709836 
-10.099767 -9.496187 0.800796 
2.736788 -7.157436 0.969969 
-1.496866 -12.966276 0.036319 
6.152614 -0.069927 3.912139 
8.949360 -7.145859 0.436729 
5.735992 -9.376871 0.790102 
6.013957 4.427253 5.186924 
3.639822 -0.782546 5.105681 
3.994869 -1.487678 7.082196 
1.613650 3.925394 1.010044 
5.364237 -5.893457 0.734410 
1.892225 -3.063148 7.119724 
-11.008543 -7.409665 1.163237 
-10.669328 -8.539131 3.275572 
-6.957588 -14.319109 0.174877 
10.845322 -8.894304 1.487553 
7.076770 -8.635277 1.218261 
6.261946 -9.812885 0.500109 
-4.369285 -4.376861 2.225676 
9.593195 -6.575845 0.802880 
6.224805 0.215498 5.695999 
6.140955 -0.038423 7.253265 
9.408441 -6.892383 0.699289 
-10.247967 -8.647349 0.995544 
6.308046 4.433143 2.790933 
-10.091298 -7.476370 3.842922 
11.338105 0.113649 0.511975 
-9.791565 -8.350021 1.403027 
-1.451019 -5.441652 2.481515 
-10.619267 -7.581520 2.860168 
6.142996 -0.067588 2.155979 
6.301076 -9.627457 0.645426 
-10.572042 -7.415033 2.281536 
-9.371660 -8.328116 2.358068 
6.299662 0.157077 5.901841 
6.054741 -4.871660 1.160516 
5.758180 -9.070371 0.897778 
4.008205 4.198269 2.871525 
-11.685392 -8.785191 1.902421 
-10.675835 -6.911290 2.149461 
-1.294560 -12.885780 0.343650 
7.150050 -9.330239 0.747743 
2.606682 4.052624 1.803550 
-1.667910 -5.614611 1.811787 
5.200417 -5.163535 1.086549 
-2.654346 -7.361212 5.145392 
6.301127 4.361076 5.517276 
-10.412643 -7.039636 1.942635 
1.052485 -2.577501 5.035239 
-9.952017 -7.818937 3.334361 
-1.298143 -12.848624 -0.109235 
5.049181 0.685831 5.062997 
-10.318431 -7.999063 4.673203 
-0.535905 -5.988750 5.092839 
-2.554656 -10.954837 5.038727 
10.828478 -7.517917 1.525084 
6.353257 -9.224163 0.878268 
6.200764 -0.068749 3.519675 
6.183912 -10.025235 0.348618 
6.034595 0.030170 1.858576 
10.359420 -6.827419 1.247632 
-9.515116 -8.111471 2.813670 
-9.795091 -8.312437 2.871917 
-1.737650 -5.463068 3.554221 
-1.313717 -12.920218 6.117859 
-10.144075 -8.233915 4.376296 
-6.508731 -14.171993 0.527541 
-9.853890 -7.135233 1.970081 
2.742640 -1.502082 5.118375 
6.142407 1.164161 7.191984 
6.284538 0.175663 6.375148 
-10.536759 -6.700617 2.197484 
6.220383 -8.222358 1.387379 
4.933960 4.313631 3.566349 
6.052375 -0.005724 0.793089 
-10.068492 -7.135598 2.649831 
6.055459 -0.010485 3.280546 
5.283530 -0.036963 4.888334 
-11.254767 -7.787376 2.782202 
6.270095 4.512924 4.093100 
6.308294 4.430106 0.647163 
4.186637 -8.644300 1.213051 
7.313061 0.074934 5.115647 
5.897830 -5.312421 1.069872 
6.170741 4.560030 6.175702 
-10.016287 -8.448277 3.002991 
2.398013 0.072231 1.644343 
10.117148 -7.261694 1.111977 
-2.557152 -9.170382 5.081095 
-2.351287 -13.020114 5.078808 
3.406538 -11.542525 0.628324 
6.465530 -6.150626 0.429551 
9.764374 -6.198493 0.898047 
10.675358 -6.240938 1.424340 
0.546583 0.047878 0.245760 
6.519392 0.199788 4.660157 
4.952555 0.296684 5.063806 
4.875652 4.333327 5.008350 
9.843521 0.126939 1.687242 
-1.775697 -5.481123 4.526616 
-1.595167 -5.339752 2.863792 
-0.758631 -5.801678 3.831255 
6.063987 3.841217 7.095491 
-1.443994 -5.478968 1.320907 
6.019963 4.453916 0.753942 
6.492860 4.388567 4.572124 
-1.447134 -10.681851 7.093040 
6.265661 4.524456 4.530232 
-1.422886 -5.663933 4.710691 
7.421570 -9.942234 0.394407 
-9.910268 -7.534245 2.775605 
5.214474 -8.366533 1.373421 
5.958325 -4.569888 1.429292 
-10.170635 -7.814698 2.497267 
-10.398638 -7.136670 2.621940 
-10.632373 -8.324295 3.385997 
6.098652 -0.050228 7.058657 
-1.733541 -12.798058 4.736680 
-1.446457 -5.430896 4.535414 
-0.281235 -8.735399 5.133780 
10.414198 -6.056527 1.254930 
9.769886 -8.011290 0.849483 
-9.927835 -8.165406 1.541118 
6.125791 4.269054 3.516293 
-1.739324 -5.481112 5.964791 
6.110220 0.208957 4.594688 
9.916700 -8.290220 0.936932 
4.658720 4.289250 3.352103 
6.430555 -9.474090 0.733973 
7.554435 4.468663 5.180774 
9.231612 -7.166131 0.599860 
-10.333820 -8.207136 3.437990 
10.472450 -8.550391 0.983109 
4.734776 -8.333191 1.323389 
0.164572 -12.373924 3.208866 
-0.036182 -4.315764 7.159543 
-0.403347 -7.741803 5.101621 
7.182510 -6.149523 0.429551 
9.924109 -7.710773 1.004885 
6.142109 0.220019 2.489059 
-9.459110 -8.835119 3.035254 
-10.520113 -8.662378 2.828445 
-1.443301 -5.481819 6.729577 
-10.882557 -7.631983 2.808431 
6.146070 4.559720 7.221715 
6.490668 -9.712885 0.515355 
6.107575 -5.691333 0.781825 
8.880664 -7.658980 0.389816 
-0.215340 -11.498322 5.035375 
-9.217582 -6.642313 0.876824 
-1.540328 -9.794087 7.175485 
6.064005 4.301752 1.325641 
-9.096401 -8.000336 2.382581 
-9.670172 -7.564906 0.964000 
-1.575368 -12.793476 5.235836 
-0.512193 -12.657585 5.018579 
1.318200 -6.585234 2.107069 
-10.052727 -8.593849 1.278278 
-9.352325 -7.821611 0.829694 
-1.518280 -12.953768 0.450059 
-10.387779 -7.950881 0.093015 
4.690410 -4.869832 1.053186 
-10.215545 -8.478339 3.025792 
6.182838 4.558881 -0.006963 
-9.650421 -7.475767 1.337859 
6.135894 4.558157 4.991467 
7.529020 -8.391236 1.359159 
-10.254198 -7.372588 3.152882 
6.056962 4.515893 6.369694 
-10.206805 -8.110065 4.534319 
-9.684798 -7.358339 2.333800 
5.025921 1.945686 5.040909 
5.412380 -1.427899 5.096927 
-2.078532 -13.062614 4.969213 
-9.834731 -7.851618 3.037374 
9.071428 0.067275 2.252279 
-10.712299 -8.313812 2.746190 
9.593929 -6.331746 0.800943 
-11.146020 -8.537358 2.403397 
-1.739066 -5.474510 1.239278 
-0.293375 -7.914911 5.066708 
8.019635 4.627704 3.043345 
6.306159 0.007478 1.385922 
4.867046 4.179963 5.143424 
4.970586 -8.516554 1.217525 
-0.547656 -4.719791 7.085400 
-0.222492 -5.913496 5.039502 
-10.435208 -8.172387 4.254582 
-9.953255 -7.180530 2.159156 
6.037343 0.022615 4.078109 
-10.336929 -7.780154 0.011641 
3.828465 4.189847 2.733068 
5.574278 4.289336 4.926377 
-10.658846 -8.560086 2.469798 
8.943706 -6.822021 0.361049 
3.711483 -1.686169 7.082534 
7.282774 0.009458 4.878432 
10.411197 -8.499797 0.775204 
-9.959198 -8.264880 3.019907 
0.924114 -3.643145 7.176657 
7.346399 -9.802206 0.529551 
-10.835573 -7.154058 2.665707 
-2.516831 -11.532979 5.120932 
5.949387 -9.055322 0.975749 
-10.575964 -7.978977 2.269965 
4.167809 -9.598497 0.615229 
6.962111 -8.220838 1.388256 
-9.401684 -8.645935 3.071477 
-0.279380 -9.411203 5.144187 
-1.573777 -12.789389 6.614933 
-10.242002 -7.981497 2.565640 
5.476198 -9.076079 0.894482 
5.801188 -4.517428 1.528861 
5.409902 -8.078146 1.512159 
5.592519 -9.616442 0.651786 
6.894386 -9.569650 0.678801 
-1.553414 -5.630775 3.652145 
4.167809 -6.374759 0.443922 
6.084390 4.537830 4.618240 
-9.579201 -7.698575 2.420169 
10.027563 -6.699758 0.985544 
-10.589289 -8.662069 0.877562 
4.449081 -5.356502 1.044422 
6.988872 -5.058857 1.146985 
4.600011 -6.153095 0.029693 
4.195258 -1.377952 7.188320 
8.381654 0.118966 2.803616 
-0.951645 -3.845968 5.110048 
7.430523 -8.474604 1.160516 
-1.579305 -12.811281 1.057488 
-1.674553 -5.365482 7.093040 
4.522969 0.069992 3.259055 
6.386022 -4.658237 1.378283 
-10.352879 -7.934623 2.870580 
6.096488 2.548186 7.190100 
7.875075 4.559040 3.187603 
4.366709 -8.962852 1.029136 
-10.268593 -8.689593 1.912019 
7.238458 -8.488884 1.233500 
-1.399906 -12.689042 3.391623 
-2.024951 -12.869387 4.853524 
5.702086 -9.732220 0.429551 
9.779147 -5.961965 0.904286 
-9.804981 -8.087493 2.969205 
4.270955 -9.135350 0.860262 
-9.843710 -7.832512 2.056558 
6.915206 -8.442552 1.189024 
4.511016 -8.423457 1.340556 
-10.527079 -8.293064 1.086960 
-0.496162 -12.555635 3.752397 
5.629489 -5.889043 0.667677 
-1.324293 -12.934136 4.639024 
6.202065 4.270203 0.666218 
9.548223 -7.780238 0.788570 
5.338492 -5.072036 1.208658 
6.248362 -6.334295 0.410610 
-10.225494 -9.263077 0.851668 
-10.232860 -7.834678 1.627364 
0.137780 3.784995 -0.121993 
9.146475 -7.656893 0.429551 
-11.907809 -7.988567 0.904051 
-1.549170 -12.924195 3.379306 
-9.627440 -8.759676 1.840228 
10.471832 -8.587359 0.554103 
9.425295 -8.235765 0.652733 
-10.220565 -6.796868 1.153302 
1.598672 -2.274345 5.090509 
9.542051 -7.200022 0.779395 
6.301899 -0.000137 0.359884 
-11.084444 -8.120784 1.339210 
-4.434722 -13.604994 2.122951 
7.496739 0.647698 5.113317 
2.439493 -3.719995 5.077183 
-11.226443 -7.981947 2.856583 
-1.586488 -5.339939 -0.040574 
10.244249 -8.493182 1.197262 
-1.650987 -5.352647 2.039693 
4.938880 -9.525256 0.704432 
-10.195271 -7.951309 1.464893 
6.024390 4.274555 4.644594 
-10.925367 -9.301390 1.278581 
6.766700 0.106742 4.904727 
6.261757 0.196761 4.154402 
7.611809 -5.530503 0.936638 
9.776097 -6.983755 0.843128 
5.056378 1.718479 5.093259 
-10.240712 -7.833345 3.236984 
-1.687582 -5.374874 4.944212 
-9.632141 -8.213369 0.845577 
6.015236 -9.692184 0.608055 
10.238020 -6.125486 1.170761 
8.998531 -7.484900 0.399112 
6.378677 -8.488830 1.160516 
-9.615528 -8.135664 3.962530 
-11.523954 -8.179609 0.863358 
7.409634 0.845637 5.048884 
-1.535288 -12.939436 2.530078 
5.125605 -8.067676 1.476685 
4.391082 -8.442552 1.163013 
0.320388 -2.994346 5.080661 
-1.908268 -5.496703 4.703268 
2.013899 -2.897971 7.191644 
-10.789536 -7.375352 1.239466 
9.606609 -7.006121 0.745504 
-10.311956 -8.667052 1.404525 
-9.872808 -8.499239 2.870804 
6.323079 0.079073 3.575181 
10.054922 -5.966089 0.994240 
6.036688 0.126517 -0.000592 
7.346421 4.553463 5.134789 
4.811078 -9.761856 0.429551 
4.512419 -5.102523 1.121774 
6.044682 4.502217 2.816718 
-1.618782 -5.632256 5.929630 
10.500916 -5.852167 1.160516 
6.035924 4.489737 3.066595 
10.240268 -8.997958 1.130565 
6.305597 0.146138 6.566819 
6.127438 -5.040090 1.227103 
-1.611254 -5.633432 4.509938 
6.268146 4.514387 3.010245 
-9.965837 -8.974562 2.469198 
-10.934822 -7.703298 2.334982 
10.514662 -6.031512 0.624380 
6.028443 0.084203 5.942039 
-9.819150 -8.083664 4.084610 
-0.384945 -3.499085 5.139166 
-10.606039 -7.182328 2.656473 
-10.482894 -7.371664 0.980378 
1.694917 -3.207080 7.145454 
6.293720 4.346739 1.553816 
10.816132 -7.137749 1.514280 
5.824462 -5.470295 0.978723 
5.353868 4.316053 4.790936 
-10.589041 -8.113024 1.301490 
-1.339105 -12.947184 4.124876 
9.213261 -7.872981 0.465301 
6.259388 4.522253 1.408497 
-9.893968 -6.854082 1.961187 
-10.517301 -7.898041 2.446486 
0.399378 3.809413 0.071482 
4.198591 -8.228803 1.383658 
-11.030349 -8.761246 1.371277 
-1.639543 -5.627176 2.120400 
6.494534 -6.440603 0.349233 
6.965011 -8.752204 1.081472 
-9.865717 -7.801916 2.804104 
-1.332029 -12.725094 3.886975 
10.559282 -6.711198 1.361882 
7.387778 4.506267 3.554846 
-1.368116 -5.474979 4.720036 
-10.337623 -8.150394 3.847010 
-0.222958 -12.382019 5.135922 
1.826339 -4.191024 5.083828 
-9.539936 -8.859390 0.882446 
6.168048 4.264857 2.443551 
4.251633 -5.066540 1.211831 
-10.431590 -6.967048 2.241671 
-1.348573 -12.712205 3.206037 
-1.520408 -12.952405 4.218763 
-9.781807 -8.809453 2.862611 
-1.521709 -12.714820 5.782953 
-9.775772 -6.892847 0.879430 
9.317547 -8.475031 0.592848 
-10.871105 -6.448526 1.079362 
-10.779588 -7.569580 1.273660 
-10.485721 -7.865620 3.382330 
6.301551 0.153701 5.521215 
-1.581007 -12.830821 7.016259 
8.965054 -6.407565 0.369364 
10.106849 -6.465849 1.029051 
10.258616 -7.032083 1.191421 
6.101302 4.547274 3.980046 
-2.556174 -5.157432 4.887196 
4.611401 -6.233059 0.338599 
-10.658591 -6.323304 1.147250 
9.718962 -6.741892 0.807806 
7.364801 -6.060702 0.637851 
7.303319 -8.095041 1.460885 
6.173563 -4.707555 1.349809 
6.439463 4.470727 4.259673 
-1.733850 -5.445912 3.990737 
6.395871 -5.581870 0.914305 
-1.400830 -11.915214 7.156133 
-1.670180 -5.613036 2.351449 
7.253960 -5.074297 1.207353 
-1.319630 -12.738707 5.688812 
9.728886 -8.879383 0.834213 
6.821798 -5.290528 1.013230 
-1.644798 -5.624849 5.326344 
4.590414 -9.732288 0.332032 
-1.445190 -5.467793 5.935245 
-1.603199 -6.421869 7.185299 
6.305945 0.006499 4.124790 
-10.199461 -7.301033 2.784178 
-10.248484 -7.703242 2.829383 
-10.755045 -7.973128 1.347884 
-10.198919 -9.034531 0.869613 
-1.289916 -12.794785 5.229476 
-10.040561 -7.538368 2.495031 
7.149178 -6.029113 0.656089 
-1.715487 -5.406700 6.891860 
5.885517 -9.235748 0.802297 
-1.606166 -5.634229 1.353298 
-10.775936 -8.154507 3.590571 
0.572640 3.821577 0.228585 
-1.343153 -12.715680 5.476746 
6.939747 -9.326621 0.819114 
2.026300 -4.171397 5.109626 
-1.498512 -7.723463 7.110325 
-9.730824 -8.697420 0.912383 
-11.306368 -7.889154 1.861866 
6.051897 4.510252 3.704564 
6.171665 2.375223 7.125357 
5.606472 -1.392213 5.132695 
3.282374 -7.410481 0.466502 
-10.547577 -8.368695 2.562685 
-10.649031 -8.344979 2.111115 
6.208200 -0.820680 5.066891 
-1.472174 -5.574503 1.532640 
10.618063 -5.792871 1.386931 
6.963345 4.473155 4.741182 
-10.049332 -7.970824 3.250473 
9.394403 -8.606758 0.707771 
-1.462408 -9.565944 7.102583 
6.520683 -8.657833 1.205239 
6.152124 -0.069907 0.946390 
-10.418545 -7.853258 1.353278 
-10.356339 -7.997712 3.470481 
-8.828162 -7.730341 1.193733 
-10.648487 -8.552206 1.988600 
-9.959806 -7.230126 1.205470 
4.818680 -9.667954 0.622045 
-1.755663 -12.888079 4.226322 
6.300356 -0.001688 1.593281 
-9.935047 -7.774733 3.802832 
4.827080 -6.228647 0.429551 
8.813931 4.660311 2.422200 
-10.888285 -7.153747 0.840840 
4.638153 -8.712215 1.104559 
-9.351403 -8.365440 0.991332 
-9.984895 -9.033108 0.805534 
5.053553 3.239523 5.107932 
-10.127142 -7.518063 2.770098 
6.060642 0.169685 6.861790 
-5.196481 -4.059420 1.522569 
-9.767858 -8.523073 3.278914 
7.368905 -4.730437 1.336598 
-0.186065 -11.328406 5.127201 
-11.211889 -9.114767 1.333796 
-10.450043 -7.915614 3.997060 
6.229112 -0.061732 4.417815 
9.241842 -6.167465 0.519167 
-10.261474 -7.280268 1.709096 
9.244296 -6.018170 0.387498 
9.144369 -6.012980 0.097922 
1.740343 -4.387470 5.063872 
6.646234 -5.258452 1.101031 
-11.279424 -7.536613 1.540558 
6.846786 -8.895754 0.998593 
7.389236 -6.133011 0.451475 
4.426220 -9.994640 0.364151 
-10.055448 -7.724300 2.221057 
-9.440485 -8.457113 1.764863 
-2.378019 -5.055431 4.905745 
-10.695517 -7.435188 1.940251 
-10.256034 -8.623350 3.749411 
-10.260427 -7.978803 1.889761 
-1.443640 -5.482260 6.985752 
-10.644428 -8.441455 3.064487 
-9.777013 -8.019828 2.580010 
-9.934511 -8.245195 2.622010 
7.182797 -8.780869 1.064922 
6.166312 4.264764 5.634604 
-10.135420 -8.232568 3.586505 
5.281622 -6.046289 0.576891 
6.050720 4.508941 2.165972 
5.356250 -6.460407 0.374680 
9.846947 -9.013015 0.970866 
-11.100748 -7.988864 1.534687 
-10.233530 -8.104418 2.876270 
-10.335516 -7.425280 1.437796 
10.535628 -9.024555 1.365453 
5.115381 0.055057 4.898798 
-1.719240 -5.561766 6.753499 
7.500667 3.176546 5.101665 
-10.198938 -7.187770 2.053776 
-1.097201 -5.696025 4.638578 
4.917820 -0.846663 7.191817 
6.293374 4.345786 6.526217 
-9.917768 -8.450394 3.376900 
-1.354241 -12.707655 0.142350 
8.964516 -5.589229 0.430418 
-1.302475 -12.902689 1.908114 
2.068153 0.030061 1.386829 
5.065310 4.319766 5.162941 
-10.887641 -8.725150 2.356605 
4.473381 -4.891153 1.313090 
6.114376 -0.058652 2.872523 
6.440367 -8.804729 1.051146 
5.522383 -9.816946 0.536024 
4.467204 -2.183593 5.134713 
6.836766 -5.663835 0.866982 
-6.060985 -3.742987 0.874732 
9.215700 -7.084208 0.429551 
-1.286003 -12.850618 0.551996 
-11.118877 -8.739483 2.364252 
-11.475785 -7.687354 0.901940 
-9.998353 -7.662208 1.935992 
-10.482884 -7.748947 2.997167 
6.049533 2.830798 7.138795 
1.455957 3.925745 0.867945 
-10.129704 -6.890141 0.827726 
10.440668 -7.308578 1.160516 
-1.463330 -9.081882 7.121675 
7.440528 1.933696 5.035340 
9.796343 -6.440819 0.849563 
-9.815661 -7.837873 3.467173 
-2.530347 -12.668757 5.145007 
-11.456290 -7.075428 2.661418 
-1.395008 -12.690602 3.622298 
9.807161 4.765363 1.714836 
-1.446113 -5.459172 2.886771 
-9.536999 -7.375164 0.912305 
-11.171306 -8.483396 1.970570 
3.544569 -1.749730 7.147704 
3.642500 0.032238 2.565691 
3.360841 -2.015161 7.147399 
-11.470459 -7.545535 1.469301 
5.020484 -4.604441 1.409343 
5.013300 -4.822667 1.352631 
5.551582 -9.249290 0.863760 
-10.602522 -7.441725 3.025793 
-1.399303 -12.976583 6.282789 
6.304934 4.447821 6.282695 
4.167809 -5.932079 0.682845 
4.958940 3.422409 5.054514 
6.488822 -5.745332 0.750648 
9.942526 -8.474457 1.022905 
-11.419508 -8.882296 1.833277 
8.904247 -8.731645 0.356745 
-1.554452 -12.749872 2.125938 
10.377327 -6.488552 1.185409 
-11.254039 -7.310805 2.664435 
-10.221460 -8.093143 0.984010 
5.935889 4.411559 4.288021 
-10.010350 -7.697206 1.585971 
7.065666 -5.542935 0.867503 
9.312565 -7.749042 0.652231 
-10.261825 -6.969307 1.570299 
-10.213604 -7.850002 1.147223 
-9.532238 -8.483782 0.964103 
-10.556385 -7.208405 0.903963 
-9.275631 -8.422750 1.284232 
-1.556201 -5.631235 6.872201 
-10.417302 -8.103678 1.210109 
-2.749189 -5.122675 5.079219 
10.277365 -7.761060 1.209296 
9.320459 -8.789584 0.666854 
4.716310 -0.950800 7.086575 
6.034653 0.030105 3.062560 
-9.439126 -7.190161 0.881170 
4.406075 -5.522408 0.948635 
-1.370045 -12.698556 2.089705 
10.243704 -8.273049 1.125536 
-10.038476 -8.397838 2.464634 
6.046695 0.150083 7.098135 
7.483446 3.591464 5.131419 
-2.019331 -5.249285 4.665950 
-1.465049 -11.706669 7.192047 
10.562702 -7.819203 1.305293 
6.207386 4.552924 1.223813 
-10.212600 -7.857690 0.458494 
-10.402929 -7.749252 2.511822 
6.293649 -0.012282 3.761637 
-1.538880 -5.349554 1.483176 
5.576939 -0.430897 7.135105 
-9.688965 -8.752849 2.680919 
-2.609860 -11.930862 5.094919 
-10.337753 -8.219494 3.653669 
-10.109271 -8.508207 0.995783 
-10.424834 -8.571131 0.960201 
6.261425 -0.044297 6.647182 
6.606187 -9.512110 0.642740 
-10.330480 -7.899153 3.056506 
9.311622 -7.564564 0.580619 
-11.735250 -8.141751 0.850629 
5.033214 -8.353781 1.311501 
10.009169 -7.049442 0.978309 
-11.426722 -7.320509 1.531998 
-9.663291 -7.664820 1.180572 
-10.360059 -8.110197 3.200521 
-0.588210 -12.488477 4.855323 
10.034336 4.831179 1.511135 
-9.824580 -7.881048 4.001087 
4.510056 -4.567730 1.499819 
4.819774 -8.876801 1.078817 
6.244479 4.290174 6.034280 
-10.463997 -7.398572 3.426687 
4.308813 -8.418877 1.343201 
9.952094 -8.092557 0.955452 
6.196371 4.268405 2.720648 
6.266629 -4.895137 1.260516 
5.687353 -10.053765 0.398034 
-9.709929 -7.591675 1.951616 
-10.689259 -7.347335 0.918586 
6.727671 -6.469341 0.390153 
4.324506 4.222295 3.050036 
-10.122861 -8.143022 3.190752 
-1.559705 -5.632242 5.128188 
-1.571430 -12.782291 4.051672 
6.727673 -9.263743 0.855417 
5.550776 -9.387434 0.714721 
6.250068 4.530622 3.590748 
6.737853 -8.441734 1.330003 
8.937032 -6.217064 0.420626 
-8.936152 -8.294201 0.847594 
-10.970121 -8.407389 1.439265 
-2.231133 -12.918133 4.908084 
4.954685 2.171114 5.120885 
-9.146845 -8.340527 0.918061 
7.094834 -8.413717 1.346179 
4.421750 -9.712885 0.440312 
-9.344885 -8.746142 1.735538 
6.064593 -8.335618 1.391270 
-2.548472 -13.189363 4.958811 
-10.057655 -9.306758 2.862502 
-10.461594 -7.839715 3.707197 
1.706493 -6.769662 1.812083 
4.505174 -6.310765 0.493477 
9.596639 -7.468731 0.744224 
9.814251 -8.547016 0.880276 
6.135318 -9.495474 0.652344 
-1.398741 -12.118208 7.112672 
10.403627 -8.580311 1.290109 
6.113210 -0.057418 0.112513 
5.040248 -5.592701 0.908052 
-0.404351 -6.481520 5.144395 
-10.121082 -7.431499 2.292649 
-11.016773 -7.764922 2.709202 
-0.511154 -5.775590 4.999108 
-1.602856 -5.340575 6.065410 
-9.987948 -8.080671 4.209024 
-10.870510 -7.460829 1.625660 
-9.877225 -8.469277 1.964672 
1.397975 0.078127 0.875141 
-1.705251 -5.394210 1.613930 
6.727426 -6.040983 0.649236 
4.588640 -5.570193 0.851765 
6.700358 -6.260951 0.522238 
6.763396 -4.777297 1.309544 
-0.598353 -5.871508 4.839298 
3.584699 4.139600 2.544303 
4.341661 -6.233011 0.435439 
8.885698 -8.278460 0.363118 
5.019158 3.587562 5.142671 
-11.123236 -7.792037 1.007186 
7.137433 4.616797 4.871233 
-1.737386 -5.512705 -0.051092 
6.289221 -0.019001 2.346418 
4.648657 -4.959010 1.273914 
-1.927070 -5.334477 4.224075 
-4.586622 -4.290032 2.030265 
5.397339 -8.868259 1.014467 
5.376375 -6.286416 0.507535 
6.474633 -4.930514 1.260516 
9.349701 -5.601146 0.652889 
10.458863 -8.762739 1.260516 
6.498681 -0.725304 5.109670 
6.494099 -5.110246 1.186597 
-11.027562 -7.918933 2.948845 
-10.757977 -7.761618 2.273434 
-10.403042 -8.501627 1.512003 
-1.834875 -5.278769 4.626308 
-11.089302 -8.579688 1.347173 
6.857631 -8.082939 1.520461 
6.101164 -9.202459 0.890799 
-1.284989 -12.824415 1.398919 
4.199850 -0.499871 5.039600 
-0.056234 -5.777445 5.074767 
10.651197 -6.001700 1.338796 
-10.294811 -7.551526 1.176646 
-9.735902 -7.682112 1.469036 
-1.636038 -5.628729 6.376931 
-11.639111 -8.311727 1.835034 
-1.572756 -5.633638 5.586884 
-10.283838 -7.623224 2.281041 
-0.139519 -4.489550 7.090824 
5.048129 0.914171 5.061029 
-1.103176 -12.766647 4.247157 
7.158669 -5.210183 1.059617 
4.357169 -0.406133 5.135905 
-9.437469 -7.987017 1.767980 
-11.187040 -7.827142 1.252904 
6.010119 -5.585915 0.911970 
6.769483 4.587335 4.745593 
6.174778 1.915239 7.104486 
7.090434 -5.757415 0.812954 
-1.294331 -12.779649 4.812696 
7.594340 -6.299780 0.499820 
-10.093018 -8.269497 4.194344 
5.674347 -8.650816 1.209290 
9.270967 4.752334 2.106633 
6.031847 0.112829 0.205507 
3.664252 -7.532987 0.208987 
6.823246 -9.073327 0.896071 
7.253396 4.465704 4.862598 
-10.708305 -8.426843 1.508677 
4.368100 -6.129856 0.597925 
5.798127 4.326163 4.835492 
7.390815 1.489417 5.089345 
10.302517 -5.922123 1.136744 
-10.635368 -7.609618 2.300411 
-1.568250 -12.772594 4.305974 
-9.006872 -8.491308 0.915424 
6.072843 4.529964 0.930113 
-9.884956 -8.501491 0.902162 
2.945320 0.052912 2.001869 
-2.166071 -5.284951 4.948359 
-9.608096 -7.048558 1.921377 
-11.004970 -8.357690 2.884649 
-1.736648 -5.514972 5.451173 
-9.839585 -8.318105 1.638646 
6.927122 -0.027803 4.905920 
-10.412911 -8.319444 3.274931 
6.028815 0.097314 0.587650 
9.640173 -8.662179 0.850182 
5.046510 -8.858388 1.089448 
-11.164307 -8.110614 2.368260 
-1.526399 -6.223280 7.149412 
10.182637 4.804410 1.368780 
5.613824 -4.706884 1.350197 
-10.644856 -8.260269 2.950725 
-10.427094 -8.664226 3.348624 
-1.293828 -12.881983 2.488687 
6.291629 4.483518 4.897298 
-2.605213 -8.196911 5.138879 
6.100064 0.985396 7.136850 
-10.074488 -7.850552 4.203228 
6.028294 4.476828 4.829878 
6.235633 4.284412 2.041767 
1.388438 -2.354483 5.145382 
-1.590949 -7.893281 7.164413 
0.745262 3.882383 0.327746 
0.741510 -12.275118 2.789008 
6.212308 0.220152 6.963846 
5.701266 -1.255188 5.037184 
-1.388245 -12.974167 1.303877 
-9.819994 -7.750652 1.828301 
-4.906523 -13.732752 1.748587 
-10.368596 -7.526639 3.235978 
-10.307558 -7.922945 4.136065 
5.602332 -4.962677 1.253376 
-1.301763 -12.901579 3.032811 
5.376501 -9.745213 0.429551 
-10.345615 -7.857470 2.361918 
6.096491 4.039581 7.082019 
-10.747978 -7.265491 2.172281 
9.229671 -6.893684 0.490503 
5.822578 -8.906068 0.992639 
-0.958322 -4.973154 7.154320 
6.214263 0.823753 7.125409 
7.021800 -8.969365 0.956094 
6.090311 1.384643 7.125806 
7.444722 -0.020945 4.973222 
6.289670 4.338764 3.609878 
-9.469640 -7.599095 0.903272 
5.796467 -6.214025 0.529551 
-10.958858 -8.525556 2.440306 
-10.223672 -8.269980 4.020505 
5.916516 0.110341 4.791965 
-10.514763 -9.098135 0.808119 
-10.338411 -8.530927 3.197604 
9.846750 -5.568528 0.926332 
-9.331688 -8.009985 0.785049 
-0.196603 -10.666969 5.075530 
-9.193647 -7.471515 1.609161 
-2.325558 -4.883208 5.116216 
9.102535 -8.509278 0.155419 
-1.549741 -5.629356 2.533128 
6.159667 0.223964 2.689925 
-9.143641 -8.758172 0.865633 
6.155080 4.264019 6.634797 
-1.581180 -12.838766 5.022320 
5.276028 -5.712059 0.769858 
-1.498257 -5.602163 0.602014 
-9.711666 -8.629567 2.835954 
1.474717 -4.461801 5.085088 
6.117114 -0.059332 0.331350 
-10.562796 -7.799050 4.222079 
-9.664223 -7.970487 2.882666 
6.659188 -8.728041 1.095423 
-1.595704 -5.339808 0.204226 
-1.453282 -5.539758 1.895584 
-10.811939 -8.246646 2.117659 
-0.929550 -12.825103 4.720686 
-9.629332 -7.838298 1.846652 
10.057747 -7.573607 1.080704 
6.133149 4.557424 6.692350 
4.407298 -5.656263 0.802072 
-1.444129 -5.477712 2.274845 
-11.705425 -8.504074 1.871718 
4.966370 1.078930 5.133418 
-10.946858 -7.745529 1.950784 
1.066592 -3.525113 7.118942 
9.515919 -8.050116 0.772533 
9.012701 4.678926 2.320719 
5.959672 -8.760130 1.076896 
-10.243964 -8.187334 2.652250 
-10.170094 -7.684457 3.830468 
7.096275 -9.989421 0.367164 
9.363845 -6.656977 0.671268 
-9.424923 -8.163359 1.568742 
4.882979 0.075755 5.248270 
-1.559489 -8.644883 7.181257 
-10.371211 -6.673354 1.166653 
-10.540379 -8.828579 1.719778 
9.705208 -8.347978 0.884686 
4.570541 -6.149545 0.586558 
2.126690 -11.883821 1.638711 
3.286338 -3.180920 5.132050 
6.328612 -6.200245 0.557286 
-2.623016 -6.643831 5.052797 
-1.440273 -11.216671 7.184859 
-1.444687 -5.472493 0.844127 
6.286655 4.332889 6.792898 
8.907605 -8.518970 0.356626 
6.372859 -6.015544 0.663923 
-1.471190 -11.004641 7.081834 
-9.919466 -8.525302 2.355886 
5.136339 -8.663367 1.132762 
-4.595594 -13.667067 2.030502 
6.020597 -4.822039 1.352994 
2.881751 -2.264440 7.085997 
5.176929 -8.517617 1.260516 
9.888828 -7.204952 0.979626 
-9.941479 -8.230800 3.533361 
-10.697441 -7.766994 2.489448 
4.751987 -6.073079 0.561424 
-1.322588 -12.931461 7.220182 
-9.990973 -7.345871 1.370735 
-9.351156 -9.130674 1.785868 
9.234672 -6.595340 0.438594 
-0.897756 -12.701836 4.892397 
-1.296279 -12.889678 3.501695 
6.920155 -0.401511 5.073555 
2.743237 -3.623343 5.088772 
-1.739700 -5.484379 0.820772 
-10.902668 -7.133078 1.135931 
-10.352896 -7.960898 1.704152 
-1.537063 -8.436400 7.192175 
-1.454558 -10.133940 7.177399 
7.295694 -6.320048 0.488118 
1.263821 -3.513654 7.152051 
5.356009 -8.442552 1.185584 
-10.529745 -8.160890 3.326134 
5.146822 -6.222617 0.429551 
6.323942 0.081100 0.137535 
-2.684770 -7.579669 5.128192 
7.154487 -9.521297 0.706718 
4.741334 -9.965631 0.380899 
9.217187 0.116805 2.139860 
6.043623 0.009001 4.891076 
4.875187 -4.487493 1.493490 
-10.907112 -7.241027 1.527042 
3.092391 -3.214720 5.090111 
4.998293 -1.746943 5.096758 
-10.402914 -8.437099 3.002349 
-11.454938 -8.004492 0.931994 
-10.579508 -7.895802 1.648921 
5.294247 0.050811 3.835440 
6.054830 -8.625893 1.223679 
9.245781 -6.477609 0.601378 
6.078198 0.187707 0.409145 
-2.523375 -12.133600 5.138414 
-10.402848 -7.928424 0.535628 
4.428871 -8.630330 1.151835 
-1.317979 -12.926869 3.312165 
-9.124235 -7.544019 1.246760 
-8.695721 -8.102972 2.384870 
9.865414 -8.699921 0.980571 
-3.764095 -13.442164 2.682311 
6.971033 0.049739 3.873690 
9.034915 -6.954991 0.484270 
-9.203170 -8.162637 1.326030 
0.343740 -12.361380 3.108889 
-10.884115 -8.191932 2.702824 
-10.120557 -7.467381 1.142826 
-1.135593 -12.878847 4.694124 
4.335301 -11.268406 -0.102077 
-6.112699 -14.065525 0.837982 
5.875891 0.020497 4.578060 
11.176208 4.941228 0.617500 
4.962774 2.389884 5.130467 
6.120002 0.345600 7.121939 
-10.794476 -6.910383 1.139849 
-1.737360 -5.506239 2.527937 
4.005631 -0.637073 5.137685 
-9.726313 -7.328481 1.115034 
4.475285 -1.086745 7.119023 
9.009089 -8.136259 0.480789 
-2.610396 -7.010010 5.059013 
7.130501 4.544503 5.049319 
2.302049 -3.845659 5.130643 
5.269534 0.044243 5.076538 
-10.533494 -7.881460 3.171125 
6.944362 -6.416071 0.363397 
6.143574 0.551701 7.087296 
7.396457 -8.676025 1.125453 
6.077396 0.186414 3.760417 
6.619184 -8.076974 1.471316 
-9.741892 -7.792247 1.022471 
6.106457 4.274388 4.351724 
-0.335390 -12.535805 3.643805 
-10.291807 -8.494980 1.931698 
-1.525716 -12.718470 5.982363 
7.446934 2.542938 5.034834 
6.137959 4.266485 6.347032 
-1.566718 -12.896580 1.241263 
-10.203393 -8.001181 2.253745 
-9.456966 -7.605585 1.669879 
-10.135106 -8.539680 2.617008 
-1.339383 -12.718098 6.137044 
6.104372 -0.053352 4.243484 
-10.465050 -7.571051 1.494684 
-10.443905 -7.529122 2.383389 
6.995667 -4.828865 1.279771 
-10.488976 -7.419487 2.778946 
5.703785 -6.422081 0.429209 
3.498739 -0.929184 5.145004 
4.935053 -5.125750 1.108365 
-9.971754 -7.320688 2.691876 
0.887774 -12.240059 2.669126 
6.145142 -0.068258 5.440557 
2.691960 -2.389589 7.183825 
-5.724136 -3.854402 1.093408 
4.167809 -6.169855 0.568599 
-0.078195 -6.104221 3.250152 
-10.248915 -6.922240 2.551517 
6.274423 -4.515306 1.530087 
10.553719 -6.947978 1.360961 
-10.067194 -7.235871 1.687246 
-1.447030 -5.521991 3.535093 
-1.417578 -12.686390 4.166165 
1.252612 -2.503576 5.078756 
4.881249 -5.952634 0.630963 
7.399546 3.001317 5.120227 
-0.392067 -8.094918 5.095134 
-10.115371 -7.786127 2.696534 
-10.680014 -7.459879 1.684064 
-10.618274 -8.300868 3.678645 
-8.839441 -7.928858 1.267007 
-10.068669 -7.855573 4.401577 
-9.327530 -7.574510 2.310954 
5.812089 -6.035960 0.652136 
4.581051 -9.920578 0.476192 
-9.859543 -7.989561 1.204362 
6.288326 4.335094 5.279793 
0.818585 -5.065101 5.140965 
0.500966 -6.273099 2.758102 
6.293354 -0.012747 2.574636 
4.824177 -5.028614 1.233728 
5.172381 -9.712885 0.492883 
-1.442695 -5.488994 5.015481 
9.759401 -7.179743 0.835386 
6.111697 -1.014314 5.123136 
8.507106 4.630173 2.709421 
-1.527386 -5.620974 6.606292 
10.421078 -7.092827 1.285793 
10.567902 -7.379930 1.373327 
1.895609 -11.960777 1.881074 
9.204060 -7.473423 0.429551 
-0.319339 -8.268832 5.036175 
-10.952067 -7.658406 0.999162 
-1.448920 -12.979851 1.518167 
10.245997 -7.930440 1.123545 
5.479820 0.057796 3.925780 
5.800619 -9.523586 0.636114 
-6.867118 -3.406854 0.197571 
-10.346025 -8.588283 2.860165 
-10.735085 -7.724650 1.133468 
-10.240872 -8.039105 3.974550 
-4.287059 -13.565531 2.238633 
9.210089 -8.062181 0.449375 
-10.577120 -7.192013 2.228420 
-9.460318 -8.102248 0.992023 
-1.158177 -5.235380 7.170177 
-1.306449 -12.910339 4.358833 
0.270376 -4.090703 7.138137 
4.167809 -8.449475 1.210635 
-9.650860 -7.347240 1.917028 
-1.473382 -12.974824 3.604760 
-11.288471 -7.771905 1.496395 
-10.269182 -7.487517 1.703453 
