10.37 -1.45 -0.01
10.35 -1.31 0.14
10.44 -1.07 2.43
10.37 -1.34 2.19
9.94 -0.91 0.96
10.28 -1.73 1.68
10.87 -1.70 1.12
10.39 -1.08 2.75
9.98 -0.86 0.54
10.44 -1.06 0.91
10.51 -1.71 0.76
10.01 -1.16 0.70
10.63 -1.37 1.49
10.78 -1.52 0.91
10.94 -1.54 1.32
10.20 -1.63 1.92
10.05 -1.32 1.34
10.25 -0.91 0.94
10.57 -0.76 1.02
10.81 -1.12 0.56
11.12 -1.18 0.78
10.59 -1.25 2.42
10.62 -1.78 1.19
10.21 -1.00 1.90
10.40 -1.18 1.55
10.46 -0.62 1.79
10.54 -0.96 1.85
9.99 -1.95 0.77
10.11 -1.10 2.28
10.46 -1.43 2.72
10.42 -1.27 2.92
10.03 -1.41 1.00
10.12 -1.59 0.83
9.83 -1.68 1.32
10.42 -0.91 1.09
10.27 -0.95 2.19
10.68 -1.39 1.89
10.74 -1.33 1.16
10.11 -1.32 1.68
10.68 -1.14 2.12
10.13 -2.21 0.74
9.44 -1.58 0.67
10.68 -1.42 2.34
10.49 -0.73 0.61
10.80 -0.47 0.93
10.12 -1.73 1.13
10.21 -1.12 1.10
11.03 -1.22 1.44
10.56 -1.58 2.14
9.74 -1.48 1.99
11.00 -0.66 1.66
10.40 -1.97 1.66
10.49 -0.92 1.30
9.98 -0.73 1.59
10.75 -1.19 1.84
10.52 -2.24 0.92
10.42 -1.63 1.93
9.62 -0.76 0.93
10.52 -1.00 2.19
10.52 -1.24 2.67
9.86 -1.55 0.72
10.63 -0.98 0.63
10.46 -1.15 3.12
10.20 -1.14 0.81
11.27 -1.47 1.25
10.48 -0.95 1.59
10.64 -1.51 1.27
10.68 -1.25 0.98
10.55 -1.41 1.10
9.86 -1.17 1.20
10.73 -0.90 1.79
10.98 -2.12 1.15
9.95 -1.69 1.85
9.84 -0.94 1.27
10.27 -2.10 1.00
9.74 -1.07 0.60
10.35 -1.42 1.33
10.64 -1.25 0.72
11.27 -0.97 0.67
10.81 -1.64 0.72
10.21 -1.37 2.05
10.93 -1.12 0.80
10.16 -1.19 1.85
10.22 -0.69 1.52
10.81 -1.22 1.34
10.93 -0.93 1.69
10.26 -0.63 1.22
9.92 -0.39 1.24
10.30 -1.73 0.83
10.02 -1.51 1.99
10.46 -0.76 1.50
10.39 -1.42 0.73
9.67 -1.70 0.68
9.50 -1.03 0.93
10.29 -1.44 2.34
11.15 -1.46 0.76
10.02 -0.71 0.88
10.39 -1.63 1.39
10.47 -1.28 0.89
10.14 -1.51 1.76
10.39 -1.42 0.50
9.93 -1.25 1.85
10.23 -1.39 1.12
10.41 -0.56 0.93
10.84 -1.13 0.99
9.86 -1.64 0.96
10.39 -1.68 1.10
10.83 -1.39 1.73
10.58 -1.29 1.30
10.15 -1.76 2.13
10.23 -0.50 0.59
10.06 -0.83 1.34
10.08 -1.12 1.66
10.76 -1.17 2.51
9.88 -2.16 0.76
10.30 -0.93 0.74
10.00 -1.14 2.03
10.00 -1.90 1.28
10.26 -1.39 2.69
11.02 -0.88 0.71
10.27 -0.73 1.83
9.81 -1.15 1.00
10.56 -1.15 1.71
10.13 -1.87 0.98
10.36 -1.25 1.95
10.73 -0.93 1.02
10.95 -1.46 0.79
10.67 -1.12 1.13
10.22 -1.22 2.58
10.87 -1.49 1.52
10.61 -1.42 0.84
10.34 -1.93 0.66
9.61 -1.89 1.34
10.20 -1.02 1.43
11.07 -1.54 0.59
9.82 -1.37 1.30
10.94 -1.39 1.97
10.93 -1.00 1.40
10.01 -1.37 0.79
10.40 -1.31 1.74
10.42 -1.19 1.15
10.52 -0.95 2.59
10.88 -0.74 0.93
10.62 -1.59 1.66
11.19 -1.85 0.60
10.00 -1.60 1.61
10.13 -0.76 0.62
9.74 -1.52 1.71
10.70 -2.02 0.66
11.07 -1.31 1.24
10.40 -1.89 1.02
9.80 -1.99 1.29
10.15 -1.41 2.51
10.20 -2.11 1.63
10.25 -1.36 0.90
9.81 -0.67 1.25
10.21 -1.40 1.48
10.66 -1.07 1.49
10.68 -1.99 1.14
10.53 -2.17 1.61
10.74 -1.68 1.44
10.88 -1.89 0.66
10.00 -0.57 1.27
10.11 -1.49 2.24
10.69 -1.59 1.97
10.63 -2.03 0.91
10.39 -0.77 0.83
9.86 -1.02 1.57
10.23 -0.94 2.63
10.95 -1.36 1.05
9.89 -1.78 0.73
10.86 -1.00 2.14
10.37 -1.53 0.93
10.73 -1.40 2.09
10.63 -1.81 1.60
10.25 -2.35 1.00
9.91 -1.41 2.17
9.54 -1.32 0.67
11.33 -1.25 0.71
9.31 -1.39 0.70
9.79 -0.54 1.57
11.03 -1.94 1.08
10.66 -0.68 1.68
11.07 -1.35 1.67
10.54 -1.61 2.41
10.09 -1.59 1.37
10.72 -1.79 0.92
10.09 -1.78 0.68
10.42 -1.65 2.63
9.67 -1.55 1.29
10.35 -2.30 1.68
10.69 -1.41 2.56
9.91 -1.79 2.09
-2.95 0.19 -0.01
-2.92 0.33 -0.16
-2.88 0.28 0.19
-3.05 0.37 0.08
-2.85 0.80 3.86
-2.95 0.36 3.47
-3.63 1.05 1.53
-3.10 -0.25 2.67
-2.16 -0.21 1.78
-2.92 0.78 4.36
-3.57 1.12 0.85
-2.84 0.81 1.44
-2.73 -0.23 1.20
-3.53 0.65 1.11
-2.55 0.32 2.37
-2.30 0.08 1.45
-2.05 0.04 2.09
-3.23 -0.09 3.04
-3.46 0.39 2.13
-3.14 1.04 1.49
-2.63 1.28 1.62
-3.29 1.03 1.64
-2.71 0.69 4.35
-2.25 0.72 0.89
-1.77 0.62 1.24
-2.61 0.50 3.84
-2.56 -0.34 1.89
-3.21 0.91 3.02
-2.90 0.62 2.46
-2.82 1.50 2.84
-2.68 0.97 2.93
-3.56 -0.60 1.22
-3.37 0.75 3.62
-2.82 0.22 4.32
-3.20 0.41 2.27
-2.88 0.47 4.63
-2.73 1.27 2.74
-3.50 0.25 1.58
-3.35 -0.03 1.32
-3.82 -0.18 2.10
-2.88 1.04 1.73
-3.12 0.98 3.47
-2.46 0.28 3.00
-2.36 0.38 1.84
-3.36 0.40 2.66
-2.47 0.69 3.36
-2.96 0.63 4.78
-3.33 -1.01 1.17
-2.78 0.74 3.12
-4.43 -0.01 1.07
-2.46 0.23 3.72
-3.06 -0.03 2.77
-2.77 1.34 0.97
-2.27 1.75 1.48
-3.64 0.36 2.55
-3.35 -0.25 1.79
-3.21 0.72 1.75
-3.10 0.49 2.44
-1.90 0.55 2.28
-2.78 0.51 3.51
-2.71 0.62 3.71
-2.65 -0.01 3.39
-2.59 0.10 3.90
-3.95 0.14 3.16
-2.90 0.83 1.25
-1.95 1.44 2.63
-2.90 -0.64 2.64
-2.76 1.03 2.06
-3.64 0.36 2.03
-3.57 1.33 2.52
-2.35 0.61 2.92
-2.72 -1.07 1.46
-2.87 -0.09 3.06
-4.15 1.29 1.48
-3.24 1.03 2.80
-2.71 0.90 3.47
-1.79 0.79 2.19
-2.71 0.52 4.24
-3.76 0.03 1.14
-2.72 0.08 3.22
-2.54 0.94 1.00
-3.20 0.87 3.77
-2.85 1.09 3.50
-2.21 0.30 2.84
-2.81 0.67 4.95
-3.23 0.69 1.29
-2.42 0.29 1.56
-3.53 -1.08 1.22
-1.52 0.16 1.98
-2.78 0.98 2.53
-2.45 0.48 3.44
-1.87 -0.10 2.01
-2.79 0.14 4.11
-2.53 0.09 2.01
-2.47 0.51 1.55
-2.67 0.25 1.75
-3.77 0.64 1.91
-2.42 -0.05 1.35
-2.55 0.84 2.13
-2.38 1.06 2.84
-2.37 0.19 2.57
-1.99 -0.88 1.83
-3.54 0.78 1.67
-3.62 -0.19 2.93
-2.65 0.35 4.05
-3.80 1.00 2.02
-2.78 1.64 0.89
-2.49 1.82 1.42
-3.11 -0.84 1.59
-3.95 0.80 0.96
-3.54 0.88 2.13
-2.83 0.78 2.72
-2.98 0.24 2.11
-2.93 0.99 2.17
-2.11 0.48 2.34
-2.27 0.58 1.40
-2.83 0.20 2.38
-3.17 -0.32 1.63
-3.94 1.10 1.53
-2.37 0.16 1.16
-2.52 0.50 1.15
-2.74 1.29 2.94
-3.31 -0.16 2.62
-2.74 -0.49 1.83
-1.53 0.95 1.06
-2.52 0.63 3.09
-2.26 -0.11 1.15
-2.94 1.11 2.82
-3.40 -0.31 2.09
-3.21 0.31 3.25
-3.11 -0.06 1.26
-3.19 0.05 1.41
-2.85 0.09 1.84
-2.79 0.16 2.13
-2.07 0.72 1.27
-3.29 0.60 2.94
-3.86 1.44 2.48
-3.39 0.65 3.11
-3.20 1.40 2.41
-3.53 0.08 1.21
-2.26 0.56 2.12
-2.22 -0.68 1.83
-2.93 0.11 2.84
-3.07 0.73 2.81
-2.06 1.01 2.68
-3.13 1.49 1.94
-3.01 0.73 3.74
-3.67 1.88 1.97
-3.06 -0.25 1.31
-2.91 0.57 3.96
-3.02 0.79 3.00
-3.51 0.09 3.16
-3.01 1.20 2.46
-3.69 1.35 1.45
-2.81 1.29 2.38
-2.26 0.77 2.04
-2.93 0.24 1.16
-2.77 0.87 4.23
-2.58 -0.04 2.96
-2.01 1.63 2.65
-3.27 -0.25 1.13
-2.71 0.56 1.27
-1.89 0.51 1.43
-2.60 -0.64 2.55
-3.08 0.43 1.94
-2.65 0.33 3.23
-2.66 0.66 3.27
-3.30 0.49 3.60
-4.07 -0.21 1.08
-4.34 0.85 1.48
-3.20 0.69 3.18
-3.08 0.21 3.72
-3.84 1.23 2.47
-1.71 0.17 1.20
-3.54 0.15 3.44
-2.69 -0.42 1.09
-2.93 -0.10 2.21
-3.32 0.10 2.79
-2.92 0.23 0.80
-3.85 1.75 2.00
-2.87 0.34 1.54
-3.65 0.50 2.94
-3.18 0.29 1.78
-2.89 1.60 1.48
-2.21 0.70 1.57
-3.76 -0.11 1.52
-3.33 0.18 2.22
-2.38 -0.46 1.87
-2.92 -0.18 1.74
-2.74 0.01 1.31
-1.99 -0.15 1.01
-2.94 1.27 1.99
-2.54 0.16 3.29
-2.63 0.72 4.13
-2.67 0.92 2.34
-3.04 -0.35 2.05
-2.62 0.45 2.06
-3.31 -0.30 3.38
-2.81 1.11 3.11
-3.66 1.60 2.44
-3.18 1.70 0.94
-2.71 -0.30 1.60
-2.84 0.86 1.87
-3.40 1.11 1.04
-3.41 -0.21 2.93
-3.44 1.18 2.13
-3.42 0.72 2.64
-2.62 0.38 3.55
-2.33 0.63 3.99
-1.37 0.74 1.14
-3.90 0.30 1.17
-1.71 0.32 1.97
-4.29 0.26 1.12
-3.74 -0.94 1.20
-3.07 1.02 1.17
-2.48 0.06 1.56
-3.54 -0.52 2.03
-2.92 0.44 1.30
-2.75 -0.02 2.02
-3.13 0.28 4.27
-4.03 -0.13 2.03
-3.08 0.50 4.42
-1.92 1.09 1.12
-3.11 1.34 2.91
-2.47 -0.10 1.94
-2.58 -0.19 1.36
-2.08 0.36 2.68
-2.22 0.32 1.36
-2.30 0.72 2.34
-2.96 0.22 3.32
-3.12 -0.88 1.16
-3.57 -0.37 1.07
-2.47 0.57 4.34
-2.72 0.71 1.97
-2.99 0.29 4.09
-3.16 0.06 3.17
-3.85 0.66 1.58
-2.15 0.27 1.55
-2.66 0.67 2.71
-3.33 -0.48 1.56
-2.39 1.29 2.74
-2.97 0.51 3.09
-3.03 0.84 3.35
-3.13 -0.56 2.63
-4.09 -0.01 1.08
-3.36 0.38 1.67
-3.13 -0.41 1.08
-2.39 1.02 1.62
-2.03 0.18 1.26
-2.78 0.49 3.24
-3.31 0.45 1.31
-2.48 0.71 1.80
-3.19 0.56 4.09
-3.47 0.58 1.72
-2.16 0.13 2.42
-2.58 0.23 1.33
-2.52 0.64 2.49
-2.32 0.02 2.31
-3.00 -0.57 1.04
-4.16 -0.51 2.12
-3.22 0.87 2.27
-2.77 -0.28 2.09
-2.92 -0.42 2.69
-2.93 0.29 1.81
-3.14 -0.31 2.94
-1.85 0.05 0.93
-3.34 1.12 3.02
-3.72 0.66 1.04
-3.10 -0.10 1.91
-3.42 -0.08 1.62
-2.23 0.79 3.06
-3.47 0.89 3.02
-2.25 -0.19 2.06
-3.03 -0.26 3.42
-3.14 0.17 2.87
-3.00 -1.16 1.57
-2.56 1.18 1.16
-2.01 0.19 0.94
-2.89 0.62 1.40
-2.40 -0.33 1.01
-2.05 0.29 3.12
-2.07 0.91 2.22
-3.53 0.31 1.25
-4.29 1.08 1.52
-2.66 -0.09 1.66
-2.91 0.42 2.76
-2.87 0.61 1.82
-1.91 0.85 1.16
-3.26 -0.72 1.20
-2.94 0.46 2.12
-3.68 0.58 2.13
-2.55 -0.14 2.12
-3.38 0.84 1.95
-1.97 0.27 2.28
-3.86 0.45 2.07
-2.14 1.31 1.47
-2.56 -0.04 2.63
-2.44 0.43 4.07
-2.24 0.36 3.25
-2.90 1.34 1.55
-3.68 -0.17 1.16
-2.88 0.49 4.35
-3.32 1.63 1.93
-2.81 -0.82 2.59
-3.12 0.78 4.07
-2.10 -0.30 1.09
-2.45 0.72 3.65
-1.65 -0.44 0.96
-3.03 0.40 0.84
-2.65 0.35 2.60
-3.62 0.71 3.50
-4.13 0.82 1.51
-2.62 0.25 4.24
-3.55 -0.05 2.56
-3.11 0.70 2.17
-3.04 0.39 1.06
-3.96 0.08 2.72
-3.64 0.28 3.18
-2.43 -0.72 1.04
-3.53 -0.45 3.33
-2.06 -0.30 2.04
-3.68 1.08 2.51
-3.43 0.63 2.23
-3.41 0.80 1.02
-3.46 0.54 3.35
-4.01 -0.36 2.10
-2.80 0.43 3.00
-3.43 -0.78 1.56
-3.14 1.24 1.39
-1.66 -0.71 1.01
-2.82 0.81 3.62
-3.85 -0.35 2.85
-2.26 1.57 2.63
-2.90 -0.51 1.62
-2.20 0.60 3.16
-4.16 0.04 3.17
-2.46 0.69 1.04
-3.43 1.19 1.53
-3.11 0.68 3.47
-2.78 0.78 1.63
-3.69 0.69 3.02
-3.86 -0.66 2.04
-3.78 -0.44 2.08
-3.11 0.88 1.03
-3.02 0.65 3.28
-3.29 -1.06 1.54
-2.58 1.33 1.87
-2.74 0.36 2.21
-4.05 0.19 2.01
-2.17 0.32 1.76
-3.08 0.92 1.74
-3.30 0.25 3.98
-2.25 -0.18 1.39
-3.62 -0.41 2.83
-3.68 0.46 1.08
-3.22 -0.85 2.59
-3.15 0.34 1.43
-3.85 1.43 1.98
-2.50 0.80 2.37
-2.47 -0.66 1.81
-3.90 0.36 2.67
-2.74 1.06 1.39
-3.28 0.93 2.60
-2.82 -0.12 2.73
-2.60 1.13 1.92
-2.27 0.46 1.02
-2.12 1.07 1.48
-3.23 -0.05 2.18
-2.40 0.10 2.89
-2.15 1.33 2.71
-3.44 -0.33 1.25
-1.89 0.60 1.94
-2.53 0.79 1.40
-2.15 -0.51 1.04
-3.76 0.08 2.89
-2.89 -0.11 3.50
-3.22 0.02 1.73
-3.54 1.59 2.01
-2.18 0.58 2.79
-2.78 1.07 1.07
-3.91 -0.12 2.84
-3.03 -0.32 1.84
-3.76 0.45 1.59
-2.63 0.97 3.13
-3.59 0.33 2.77
-2.30 -0.34 1.22
-2.64 0.23 2.77
-2.75 -0.73 1.83
-2.88 -0.94 1.54
-3.36 0.12 3.55
-2.50 0.82 4.00
-1.96 -0.64 1.00
-2.44 -0.04 3.13
-3.01 1.96 0.94
-2.54 -0.73 1.44
-1.89 0.16 2.08
-2.72 0.64 4.75
-3.52 1.41 0.98
-2.93 1.27 1.32
-3.18 0.45 3.79
-2.46 -0.27 1.50
-3.14 0.63 1.47
-3.29 -0.53 1.27
-1.72 0.39 1.19
-2.97 0.35 3.90
-3.08 0.29 4.48
-3.55 0.69 1.94
-2.14 1.95 1.44
-2.21 1.00 1.16
-3.77 0.88 2.49
-3.17 1.00 4.18
-2.78 1.04 3.77
-2.10 1.65 1.41
-1.80 -0.30 0.98
-3.13 1.44 1.00
-3.67 0.09 1.59
-3.44 0.34 3.08
-2.64 0.88 1.83
-2.18 0.90 3.39
-2.67 0.69 2.25
-3.38 1.12 2.58
-2.08 0.47 1.50
-2.56 0.02 2.37
-2.44 0.45 3.64
-2.95 0.05 3.62
-2.32 -0.10 2.51
-2.95 0.07 1.47
-2.36 0.25 2.24
-1.76 0.41 2.21
-3.12 1.25 2.72
-3.42 0.49 3.97
-2.54 -0.38 2.54
-3.14 0.11 3.99
-3.89 -0.40 1.16
-3.23 -0.10 3.51
-2.99 -0.98 2.65
-2.52 1.20 2.95
-2.53 1.33 0.90
-2.99 0.56 4.18
-3.76 0.20 2.06
-2.97 0.93 1.55
-3.20 0.23 1.09
-2.80 0.30 3.66
-3.62 -0.07 2.14
-1.43 0.51 1.13
-2.58 -0.53 1.48
-4.50 0.35 1.08
-3.07 1.22 1.09
-2.65 0.40 4.54
-3.13 1.14 3.04
-2.38 0.95 3.43
-1.63 -0.02 2.01
-3.34 -0.58 2.62
-4.08 0.61 1.02
-2.61 -0.26 3.02
-1.90 -0.59 1.71
-2.51 -0.08 3.52
-1.84 0.35 2.65
-3.11 1.11 2.11
-3.11 0.39 2.81
-3.53 1.36 2.06
-3.44 0.31 3.53
-3.88 1.28 1.43
-3.21 0.10 1.97
-2.52 -0.17 1.14
-2.29 1.01 1.92
-3.61 0.59 2.67
-2.33 0.48 2.42
-2.32 0.03 3.54
-2.63 1.07 3.31
-2.65 1.56 1.48
-3.06 1.01 3.73
-3.95 -0.12 3.10
-2.56 1.19 2.32
-2.39 -0.09 3.75
-2.25 0.08 1.81
-3.03 0.10 2.29
-2.53 0.95 1.28
-3.16 0.67 4.29
-3.67 0.04 2.71
-3.68 -0.11 3.33
-2.34 1.53 1.53
-2.62 0.43 1.67
-3.68 1.18 2.04
-3.56 -0.51 1.49
-2.68 -0.06 3.82
-2.17 0.27 2.18
-3.59 0.90 0.94
-3.54 -0.27 1.53
-3.30 -0.38 2.60
-2.74 -0.03 2.22
-3.43 -0.55 1.01
-2.66 0.10 3.65
-3.32 0.85 3.22
-1.96 0.42 2.03
-2.89 1.10 4.24
-2.33 0.81 1.30
-2.95 -0.06 4.17
-4.62 0.16 1.14
-2.53 0.46 2.89
-4.13 0.50 1.53
-2.85 0.74 4.57
-2.82 -0.71 1.55
-2.17 -0.41 1.80
-3.87 0.33 3.12
-2.00 0.61 2.63
-1.97 -0.03 1.19
-2.71 0.83 1.16
-3.48 0.65 2.84
-3.30 0.53 1.82
-2.93 0.45 2.34
-2.14 0.50 3.89
-2.51 -0.37 1.26
-3.76 -0.03 3.11
-2.29 0.80 2.77
-2.40 1.31 1.58
-3.54 0.16 2.11
-1.97 0.73 1.47
-1.98 -0.29 1.74
-3.19 1.29 2.05
-1.37 0.02 2.01
-3.23 -0.48 1.79
-2.51 0.83 2.95
-3.09 -1.38 1.61
-4.32 0.49 1.03
-1.61 0.75 1.16
-2.63 0.86 3.66
-3.67 0.87 3.38
-2.31 0.14 3.26
-2.26 0.69 3.50
-2.62 1.06 1.73
-3.50 0.28 3.94
-1.99 0.48 3.08
-3.00 1.01 3.20
-2.90 0.38 0.65
-3.32 0.70 4.00
-3.01 0.80 2.34
-2.26 0.95 0.88
-2.39 0.40 2.61
-3.34 0.86 1.27
-3.43 1.47 2.42
-2.85 0.33 0.99
-1.58 0.59 2.23
-3.38 0.86 3.45
-3.11 1.04 2.56
-3.33 1.55 0.92
-1.96 1.19 1.45
-3.09 1.21 1.60
-3.49 -0.13 3.43
-2.48 1.00 2.26
-3.27 -0.47 2.01
-2.08 0.13 2.71
-1.66 -0.19 0.88
-3.68 -1.23 1.28
-2.69 0.52 2.45
-2.88 -0.39 1.21
-2.93 -0.84 1.11
-3.05 0.37 0.43
7.46 2.88 -0.01
7.49 3.02 -0.16
7.53 2.97 0.19
7.36 3.06 0.08
7.56 3.49 3.86
7.46 3.05 3.47
6.78 3.74 1.53
7.31 2.44 2.67
8.25 2.48 1.78
7.49 3.47 4.36
6.84 3.81 0.85
7.57 3.50 1.44
7.68 2.46 1.20
6.88 3.34 1.11
7.86 3.01 2.37
8.11 2.77 1.45
8.36 2.73 2.09
7.18 2.60 3.04
6.95 3.08 2.13
7.27 3.73 1.49
7.78 3.97 1.62
7.12 3.72 1.64
7.70 3.38 4.35
8.16 3.41 0.89
8.64 3.31 1.24
7.80 3.19 3.84
7.85 2.35 1.89
7.20 3.60 3.02
7.51 3.31 2.46
7.59 4.19 2.84
7.73 3.66 2.93
6.85 2.09 1.22
7.04 3.44 3.62
7.59 2.91 4.32
7.21 3.10 2.27
7.53 3.16 4.63
7.68 3.96 2.74
6.91 2.94 1.58
7.06 2.66 1.32
6.59 2.51 2.10
7.53 3.73 1.73
7.29 3.67 3.47
7.95 2.97 3.00
8.05 3.07 1.84
7.05 3.09 2.66
7.94 3.38 3.36
7.45 3.32 4.78
7.08 1.68 1.17
7.63 3.43 3.12
5.98 2.68 1.07
7.95 2.92 3.72
7.35 2.66 2.77
7.64 4.03 0.97
8.14 4.44 1.48
6.77 3.05 2.55
7.06 2.44 1.79
7.20 3.41 1.75
7.31 3.18 2.44
8.51 3.24 2.28
7.63 3.20 3.51
7.70 3.31 3.71
7.76 2.68 3.39
7.82 2.79 3.90
6.46 2.83 3.16
7.51 3.52 1.25
8.46 4.13 2.63
7.51 2.05 2.64
7.65 3.72 2.06
6.77 3.05 2.03
6.84 4.02 2.52
8.06 3.30 2.92
7.69 1.62 1.46
7.54 2.60 3.06
6.26 3.98 1.48
7.17 3.72 2.80
7.70 3.59 3.47
8.62 3.48 2.19
7.70 3.21 4.24
6.65 2.72 1.14
7.69 2.77 3.22
7.87 3.63 1.00
7.21 3.56 3.77
7.56 3.78 3.50
8.20 2.99 2.84
7.60 3.36 4.95
7.18 3.38 1.29
7.99 2.98 1.56
6.88 1.61 1.22
8.89 2.85 1.98
7.63 3.67 2.53
7.96 3.17 3.44
8.54 2.59 2.01
7.62 2.83 4.11
7.88 2.78 2.01
7.94 3.20 1.55
7.74 2.94 1.75
6.64 3.33 1.91
7.99 2.64 1.35
7.86 3.53 2.13
8.03 3.75 2.84
8.04 2.88 2.57
8.42 1.81 1.83
6.87 3.47 1.67
6.79 2.50 2.93
7.76 3.04 4.05
6.61 3.69 2.02
7.63 4.33 0.89
7.92 4.51 1.42
7.30 1.85 1.59
6.46 3.49 0.96
6.87 3.57 2.13
7.58 3.47 2.72
7.43 2.93 2.11
7.48 3.68 2.17
8.30 3.17 2.34
8.14 3.27 1.40
7.58 2.89 2.38
7.24 2.37 1.63
6.47 3.79 1.53
8.04 2.85 1.16
7.89 3.19 1.15
7.67 3.98 2.94
7.10 2.53 2.62
7.67 2.20 1.83
8.88 3.64 1.06
7.89 3.32 3.09
8.15 2.58 1.15
7.47 3.80 2.82
7.01 2.38 2.09
7.20 3.00 3.25
7.30 2.63 1.26
7.22 2.74 1.41
7.56 2.78 1.84
7.62 2.85 2.13
8.34 3.41 1.27
7.12 3.29 2.94
6.55 4.13 2.48
7.02 3.34 3.11
7.21 4.09 2.41
6.88 2.77 1.21
8.15 3.25 2.12
8.19 2.01 1.83
7.48 2.80 2.84
7.34 3.42 2.81
8.35 3.70 2.68
7.28 4.18 1.94
7.40 3.42 3.74
6.74 4.57 1.97
7.35 2.44 1.31
7.50 3.26 3.96
7.39 3.48 3.00
6.90 2.78 3.16
7.40 3.89 2.46
6.72 4.04 1.45
7.60 3.98 2.38
8.15 3.46 2.04
7.48 2.93 1.16
7.64 3.56 4.23
7.83 2.65 2.96
8.40 4.32 2.65
7.14 2.44 1.13
7.70 3.25 1.27
8.52 3.20 1.43
7.81 2.05 2.55
7.33 3.12 1.94
7.76 3.02 3.23
7.75 3.35 3.27
7.11 3.18 3.60
6.34 2.48 1.08
6.07 3.54 1.48
7.21 3.38 3.18
7.33 2.90 3.72
6.57 3.92 2.47
8.70 2.86 1.20
6.87 2.84 3.44
7.72 2.27 1.09
7.48 2.59 2.21
7.09 2.79 2.79
7.49 2.92 0.80
6.56 4.44 2.00
7.54 3.03 1.54
6.76 3.19 2.94
7.23 2.98 1.78
7.52 4.29 1.48
8.20 3.39 1.57
6.65 2.58 1.52
7.08 2.87 2.22
8.03 2.23 1.87
7.49 2.51 1.74
7.67 2.70 1.31
8.42 2.54 1.01
7.47 3.96 1.99
7.87 2.85 3.29
7.78 3.41 4.13
7.74 3.61 2.34
7.37 2.34 2.05
7.79 3.14 2.06
7.10 2.39 3.38
7.60 3.80 3.11
6.75 4.29 2.44
7.23 4.39 0.94
7.70 2.39 1.60
7.57 3.55 1.87
7.01 3.80 1.04
7.00 2.48 2.93
6.97 3.87 2.13
6.99 3.41 2.64
7.79 3.07 3.55
8.08 3.32 3.99
9.04 3.43 1.14
6.51 2.99 1.17
8.70 3.01 1.97
6.12 2.95 1.12
6.67 1.75 1.20
7.34 3.71 1.17
7.93 2.75 1.56
6.87 2.17 2.03
7.49 3.13 1.30
7.66 2.67 2.02
7.28 2.97 4.27
6.38 2.56 2.03
7.33 3.19 4.42
8.49 3.78 1.12
7.30 4.03 2.91
7.94 2.59 1.94
7.83 2.50 1.36
8.33 3.05 2.68
8.19 3.01 1.36
8.11 3.41 2.34
7.45 2.91 3.32
7.29 1.81 1.16
6.84 2.32 1.07
7.94 3.26 4.34
7.69 3.40 1.97
7.42 2.98 4.09
7.25 2.75 3.17
6.56 3.35 1.58
8.26 2.96 1.55
7.75 3.36 2.71
7.08 2.21 1.56
8.02 3.98 2.74
7.44 3.20 3.09
7.38 3.53 3.35
7.28 2.13 2.63
6.32 2.68 1.08
7.05 3.07 1.67
7.28 2.28 1.08
8.02 3.71 1.62
8.38 2.87 1.26
7.63 3.18 3.24
7.10 3.14 1.31
7.93 3.40 1.80
7.22 3.25 4.09
6.94 3.27 1.72
8.25 2.82 2.42
7.83 2.92 1.33
7.89 3.33 2.49
8.09 2.71 2.31
7.41 2.12 1.04
6.25 2.18 2.12
7.19 3.56 2.27
7.64 2.41 2.09
7.49 2.27 2.69
7.48 2.98 1.81
7.27 2.38 2.94
8.56 2.74 0.93
7.07 3.81 3.02
6.69 3.35 1.04
7.31 2.59 1.91
6.99 2.61 1.62
8.18 3.48 3.06
6.94 3.58 3.02
8.16 2.50 2.06
7.38 2.43 3.42
7.27 2.86 2.87
7.41 1.53 1.57
7.85 3.87 1.16
8.40 2.88 0.94
7.52 3.31 1.40
8.01 2.36 1.01
8.36 2.98 3.12
8.34 3.60 2.22
6.88 3.00 1.25
6.12 3.77 1.52
7.75 2.60 1.66
7.50 3.11 2.76
7.54 3.30 1.82
8.50 3.54 1.16
7.15 1.97 1.20
7.47 3.15 2.12
6.73 3.27 2.13
7.86 2.55 2.12
7.03 3.53 1.95
8.44 2.96 2.28
6.55 3.14 2.07
8.27 4.00 1.47
7.85 2.65 2.63
7.97 3.12 4.07
8.17 3.05 3.25
7.51 4.03 1.55
6.73 2.52 1.16
7.53 3.18 4.35
7.09 4.32 1.93
7.60 1.87 2.59
7.29 3.47 4.07
8.31 2.39 1.09
7.96 3.41 3.65
8.76 2.25 0.96
7.38 3.09 0.84
7.76 3.04 2.60
6.79 3.40 3.50
6.28 3.51 1.51
7.79 2.94 4.24
6.86 2.64 2.56
7.30 3.39 2.17
7.37 3.08 1.06
6.45 2.77 2.72
6.77 2.97 3.18
7.98 1.97 1.04
6.88 2.24 3.33
8.35 2.39 2.04
6.73 3.77 2.51
6.98 3.32 2.23
7.00 3.49 1.02
6.95 3.23 3.35
6.40 2.33 2.10
7.61 3.12 3.00
6.98 1.91 1.56
7.27 3.93 1.39
8.75 1.98 1.01
7.59 3.50 3.62
6.56 2.34 2.85
8.15 4.26 2.63
7.51 2.18 1.62
8.21 3.29 3.16
6.25 2.73 3.17
7.95 3.38 1.04
6.98 3.88 1.53
7.30 3.37 3.47
7.63 3.47 1.63
6.72 3.38 3.02
6.55 2.03 2.04
6.63 2.25 2.08
7.30 3.57 1.03
7.39 3.34 3.28
7.12 1.63 1.54
7.83 4.02 1.87
7.67 3.05 2.21
6.36 2.88 2.01
8.24 3.01 1.76
7.33 3.61 1.74
7.11 2.94 3.98
8.16 2.51 1.39
6.79 2.28 2.83
6.73 3.15 1.08
7.19 1.84 2.59
7.26 3.03 1.43
6.56 4.12 1.98
7.91 3.49 2.37
7.94 2.03 1.81
6.51 3.05 2.67
7.67 3.75 1.39
7.13 3.62 2.60
7.59 2.57 2.73
7.81 3.82 1.92
8.14 3.15 1.02
8.29 3.76 1.48
7.18 2.64 2.18
8.01 2.79 2.89
8.26 4.02 2.71
6.97 2.36 1.25
8.52 3.29 1.94
7.88 3.48 1.40
8.26 2.18 1.04
6.65 2.77 2.89
7.52 2.58 3.50
7.19 2.71 1.73
6.87 4.28 2.01
8.23 3.27 2.79
7.63 3.76 1.07
6.50 2.57 2.84
7.38 2.37 1.84
6.65 3.14 1.59
7.78 3.66 3.13
6.82 3.02 2.77
8.11 2.35 1.22
7.77 2.92 2.77
7.66 1.96 1.83
7.53 1.75 1.54
7.05 2.81 3.55
7.91 3.51 4.00
8.45 2.05 1.00
7.97 2.65 3.13
7.40 4.65 0.94
7.87 1.96 1.44
8.52 2.85 2.08
7.69 3.33 4.75
6.89 4.10 0.98
7.48 3.96 1.32
7.23 3.14 3.79
7.95 2.42 1.50
7.27 3.32 1.47
7.12 2.16 1.27
8.69 3.08 1.19
7.44 3.04 3.90
7.33 2.98 4.48
6.86 3.38 1.94
8.27 4.64 1.44
8.20 3.69 1.16
6.64 3.57 2.49
7.24 3.69 4.18
7.63 3.73 3.77
8.31 4.34 1.41
8.61 2.39 0.98
7.28 4.13 1.00
6.74 2.78 1.59
6.97 3.03 3.08
7.77 3.57 1.83
8.23 3.59 3.39
7.74 3.38 2.25
7.03 3.81 2.58
8.33 3.16 1.50
7.85 2.71 2.37
7.97 3.14 3.64
7.46 2.74 3.62
8.09 2.59 2.51
7.46 2.76 1.47
8.05 2.94 2.24
8.65 3.10 2.21
7.29 3.94 2.72
6.99 3.18 3.97
7.87 2.31 2.54
7.27 2.80 3.99
6.52 2.29 1.16
7.18 2.59 3.51
7.42 1.71 2.65
7.89 3.89 2.95
7.88 4.02 0.90
7.42 3.25 4.18
6.65 2.89 2.06
7.44 3.62 1.55
7.21 2.92 1.09
7.61 2.99 3.66
6.79 2.62 2.14
8.98 3.20 1.13
7.83 2.16 1.48
5.91 3.04 1.08
7.34 3.91 1.09
7.76 3.09 4.54
7.28 3.83 3.04
8.03 3.64 3.43
8.78 2.67 2.01
7.07 2.11 2.62
6.33 3.30 1.02
7.80 2.43 3.02
8.51 2.10 1.71
7.90 2.61 3.52
8.57 3.04 2.65
7.30 3.80 2.11
7.30 3.08 2.81
6.88 4.05 2.06
6.97 3.00 3.53
6.53 3.97 1.43
7.20 2.79 1.97
7.89 2.52 1.14
8.12 3.70 1.92
6.80 3.28 2.67
8.08 3.17 2.42
8.09 2.72 3.54
7.78 3.76 3.31
7.76 4.25 1.48
7.35 3.70 3.73
6.46 2.57 3.10
7.85 3.88 2.32
8.02 2.60 3.75
8.16 2.77 1.81
7.38 2.79 2.29
7.88 3.64 1.28
7.25 3.36 4.29
6.74 2.73 2.71
6.73 2.58 3.33
8.07 4.22 1.53
7.79 3.12 1.67
6.73 3.87 2.04
6.85 2.18 1.49
7.73 2.63 3.82
8.24 2.96 2.18
6.82 3.59 0.94
6.87 2.42 1.53
7.11 2.31 2.60
7.67 2.66 2.22
6.98 2.14 1.01
7.75 2.79 3.65
7.09 3.54 3.22
8.45 3.11 2.03
7.52 3.79 4.24
8.08 3.50 1.30
7.46 2.63 4.17
5.79 2.85 1.14
7.88 3.15 2.89
6.28 3.19 1.53
7.56 3.43 4.57
7.59 1.98 1.55
8.24 2.28 1.80
6.54 3.02 3.12
8.41 3.30 2.63
8.44 2.66 1.19
7.70 3.52 1.16
6.93 3.34 2.84
7.11 3.22 1.82
7.48 3.14 2.34
8.27 3.19 3.89
7.90 2.32 1.26
6.65 2.66 3.11
8.12 3.49 2.77
8.01 4.00 1.58
6.87 2.85 2.11
8.44 3.42 1.47
8.43 2.40 1.74
7.22 3.98 2.05
9.04 2.71 2.01
7.18 2.21 1.79
7.90 3.52 2.95
7.32 1.31 1.61
6.09 3.18 1.03
8.80 3.44 1.16
7.78 3.55 3.66
6.74 3.56 3.38
8.10 2.83 3.26
8.15 3.38 3.50
7.79 3.75 1.73
6.91 2.97 3.94
8.42 3.17 3.08
7.41 3.70 3.20
7.51 3.07 0.65
7.09 3.39 4.00
7.40 3.49 2.34
8.15 3.64 0.88
8.02 3.09 2.61
7.07 3.55 1.27
6.98 4.16 2.42
7.56 3.02 0.99
8.83 3.28 2.23
7.03 3.55 3.45
7.30 3.73 2.56
7.08 4.24 0.92
8.45 3.88 1.45
7.32 3.90 1.60
6.92 2.56 3.43
7.93 3.69 2.26
7.14 2.22 2.01
8.33 2.82 2.71
8.75 2.50 0.88
6.73 1.46 1.28
7.72 3.21 2.45
7.53 2.30 1.21
7.48 1.85 1.11
7.36 3.06 0.43
5.91 -0.67 -0.11
5.92 -0.66 -0.01
5.82 -0.57 -0.12
5.84 -0.55 -0.02
5.97 -0.59 -0.10
5.94 -0.55 -0.01
5.90 -0.52 -0.12
5.98 -0.63 0.08
5.88 -0.62 0.08
5.92 -0.67 0.17
5.92 -0.65 0.26
5.84 -0.56 0.14
5.85 -0.56 0.26
5.93 -0.66 0.37
5.97 -0.64 0.46
5.94 -0.65 0.56
5.85 -0.56 0.37
5.88 -0.56 0.46
5.88 -0.56 0.56
5.97 -0.66 0.65
5.97 -0.64 0.75
5.88 -0.54 0.67
5.89 -0.56 0.79
5.98 -0.65 0.86
5.97 -0.65 0.96
5.99 -0.64 1.06
5.90 -0.56 0.89
5.90 -0.55 0.99
5.91 -0.55 1.09
5.92 -0.52 0.08
5.96 -0.57 0.16
5.96 -0.53 0.26
5.99 -0.55 0.37
6.00 -0.54 0.49
6.01 -0.58 0.59
5.97 -0.49 0.59
5.98 -0.52 0.69
6.02 -0.54 0.78
6.04 -0.55 0.89
5.99 -0.50 0.97
6.05 -0.56 1.07
5.99 -0.48 1.10
6.21 -1.01 3.66
6.19 -0.85 3.60
6.13 -0.76 3.63
6.27 -1.37 3.79
6.29 -1.54 3.86
6.31 -1.44 3.88
6.26 -1.25 3.76
6.24 -1.29 3.86
6.23 -1.16 3.73
6.17 -1.09 3.77
6.15 -0.89 3.69
6.17 -0.71 3.55
5.98 -0.64 1.17
5.99 -0.63 1.27
5.91 -0.55 1.23
6.02 -0.65 1.49
6.00 -0.63 1.38
6.00 -0.63 1.59
5.99 -0.62 1.72
6.04 -0.54 1.19
6.03 -0.54 1.30
5.94 -0.55 1.33
6.06 -0.56 1.42
5.96 -0.55 1.44
6.04 -0.47 1.48
6.07 -0.56 1.53
6.02 -0.48 1.58
6.00 -0.48 1.38
5.93 -0.48 1.51
6.08 -0.61 1.66
5.98 -0.54 1.65
6.07 -0.52 1.71
6.09 -0.59 1.82
6.02 -0.47 1.79
5.99 -0.60 1.82
5.94 -0.53 1.74
5.96 -0.51 1.86
6.03 -0.63 1.92
6.10 -0.56 1.97
6.03 -0.47 1.92
6.09 -0.57 2.09
6.00 -0.61 2.02
5.99 -0.52 2.09
6.06 -0.47 2.02
5.96 -0.51 1.98
6.11 -0.56 2.21
6.03 -0.61 2.19
5.98 -0.52 2.22
6.08 -0.47 2.14
6.11 -0.57 2.36
6.03 -0.57 2.29
6.08 -0.47 2.27
6.04 -0.47 2.36
6.13 -0.54 2.48
5.99 -0.49 2.44
6.07 -0.44 2.48
6.13 -0.55 2.60
6.04 -0.58 2.56
6.02 -0.48 2.57
6.11 -0.45 2.61
6.07 -0.60 2.67
6.00 -0.48 2.67
6.03 -0.56 2.77
6.13 -0.54 2.85
6.07 -0.44 2.88
6.00 -0.46 2.82
6.04 -0.57 2.90
6.06 -0.57 3.01
6.02 -0.48 2.97
6.10 -0.44 3.03
6.03 -0.46 3.15
6.14 -0.43 3.13
6.16 -0.54 3.22
6.08 -0.45 3.25
6.10 -0.57 3.31
6.17 -0.55 3.41
6.14 -0.46 3.34
6.03 -0.46 3.34
6.16 -0.60 3.51
6.08 -0.55 3.45
6.05 -0.44 3.45
6.09 -0.44 3.54
6.13 -0.54 3.61
6.12 -0.45 3.65
6.07 -0.35 3.58
6.09 -0.24 3.56
6.06 -0.15 3.60
6.08 -0.06 3.65
6.05 0.04 3.67
6.14 -0.54 3.73
6.13 -0.45 3.76
6.12 -0.55 3.84
6.18 -0.53 3.92
6.10 -0.45 3.87
6.14 -0.53 4.02
6.09 -0.45 3.97
6.13 -0.56 4.13
6.15 -0.45 4.08
6.10 -0.47 4.18
5.99 0.11 3.73
6.03 0.21 3.72
5.97 0.27 3.77
5.98 0.42 3.79
5.93 0.50 3.83
6.18 -0.52 4.24
6.15 -0.44 4.29
6.13 -0.54 4.33
6.15 -0.54 4.43
6.13 -0.45 4.39
6.14 -0.54 4.53
6.11 -0.45 4.50
6.14 -0.55 4.64
6.15 -0.43 4.59
6.12 -0.44 4.69
6.19 -0.49 4.75
6.11 -0.47 4.80
6.16 -0.53 4.94
6.15 -0.43 4.90
6.14 -0.54 5.05
6.16 -0.45 5.00
6.16 -0.53 5.16
6.16 -0.45 5.12
6.12 -0.47 5.24
6.15 -0.42 5.32
6.16 -0.53 5.34
6.16 -0.54 5.45
6.16 -0.44 5.43
6.16 -0.53 5.56
6.15 -0.43 5.53
5.90 -0.67 -0.25
5.82 -0.58 -0.25
5.95 -0.55 -0.25
11.36 2.09 -0.11
11.36 2.10 -0.01
11.24 2.05 -0.12
11.23 2.07 -0.02
11.32 2.18 -0.10
11.27 2.17 -0.01
11.22 2.15 -0.12
11.36 2.17 0.08
11.31 2.09 0.08
11.37 2.11 0.17
11.35 2.11 0.26
11.23 2.08 0.14
11.24 2.08 0.26
11.36 2.12 0.37
11.36 2.16 0.46
11.36 2.13 0.56
11.24 2.08 0.37
11.25 2.11 0.46
11.25 2.11 0.56
11.37 2.15 0.65
11.36 2.16 0.75
11.24 2.12 0.67
11.26 2.12 0.79
11.37 2.16 0.86
11.37 2.16 0.96
11.37 2.17 1.06
11.27 2.13 0.89
11.25 2.14 0.99
11.25 2.14 1.09
11.23 2.16 0.08
11.29 2.18 0.16
11.25 2.19 0.26
11.28 2.21 0.37
11.28 2.22 0.49
11.33 2.22 0.59
11.22 2.22 0.59
11.25 2.21 0.69
11.29 2.24 0.78
11.30 2.26 0.89
11.24 2.24 0.97
11.32 2.26 1.07
11.23 2.24 1.10
11.80 2.24 3.66
11.64 2.28 3.60
11.54 2.25 3.63
12.15 2.15 3.79
12.32 2.10 3.86
12.23 2.15 3.88
12.04 2.18 3.76
12.06 2.15 3.86
11.94 2.20 3.73
11.86 2.17 3.77
11.66 2.22 3.69
11.51 2.31 3.55
11.36 2.17 1.17
11.36 2.18 1.27
11.25 2.14 1.23
11.39 2.20 1.49
11.36 2.19 1.38
11.36 2.19 1.59
11.36 2.19 1.72
11.30 2.27 1.19
11.29 2.26 1.30
11.27 2.17 1.33
11.32 2.27 1.42
11.28 2.18 1.44
11.23 2.29 1.48
11.33 2.28 1.53
11.24 2.27 1.58
11.23 2.25 1.38
11.20 2.18 1.51
11.38 2.27 1.66
11.28 2.21 1.65
11.29 2.30 1.71
11.36 2.30 1.82
11.22 2.27 1.79
11.33 2.20 1.82
11.25 2.18 1.74
11.24 2.20 1.86
11.38 2.22 1.92
11.34 2.31 1.97
11.23 2.28 1.92
11.35 2.30 2.09
11.34 2.20 2.02
11.26 2.22 2.09
11.24 2.31 2.02
11.24 2.20 1.98
11.34 2.32 2.21
11.35 2.22 2.19
11.25 2.21 2.22
11.25 2.33 2.14
11.35 2.32 2.36
11.32 2.24 2.29
11.25 2.33 2.27
11.23 2.29 2.36
11.34 2.35 2.48
11.23 2.23 2.44
11.22 2.33 2.48
11.34 2.34 2.60
11.34 2.25 2.56
11.24 2.27 2.57
11.24 2.37 2.61
11.36 2.27 2.67
11.23 2.25 2.67
11.32 2.25 2.77
11.33 2.35 2.85
11.22 2.33 2.88
11.20 2.26 2.82
11.32 2.25 2.90
11.33 2.27 3.01
11.23 2.27 2.97
11.22 2.36 3.03
11.22 2.28 3.15
11.23 2.40 3.13
11.34 2.37 3.22
11.24 2.34 3.25
11.35 2.31 3.31
11.36 2.38 3.41
11.26 2.39 3.34
11.22 2.29 3.34
11.40 2.35 3.51
11.32 2.30 3.45
11.21 2.31 3.45
11.22 2.35 3.54
11.34 2.35 3.61
11.25 2.38 3.65
11.13 2.36 3.58
11.04 2.42 3.56
10.95 2.44 3.60
10.87 2.49 3.65
10.77 2.50 3.67
11.34 2.36 3.73
11.25 2.39 3.76
11.33 2.33 3.84
11.34 2.39 3.92
11.24 2.35 3.87
11.32 2.36 4.02
11.23 2.34 3.97
11.35 2.34 4.13
11.26 2.41 4.08
11.26 2.35 4.18
10.68 2.48 3.73
10.61 2.55 3.72
10.53 2.52 3.77
10.39 2.59 3.79
10.30 2.57 3.83
11.33 2.40 4.24
11.25 2.41 4.29
11.34 2.35 4.33
11.34 2.37 4.43
11.25 2.38 4.39
11.34 2.36 4.53
11.24 2.36 4.50
11.34 2.35 4.64
11.24 2.41 4.59
11.24 2.38 4.69
11.31 2.42 4.75
11.26 2.36 4.80
11.34 2.38 4.94
11.24 2.41 4.90
11.33 2.36 5.05
11.26 2.41 5.00
11.34 2.38 5.16
11.26 2.41 5.12
11.27 2.37 5.24
11.23 2.41 5.32
11.34 2.38 5.34
11.34 2.37 5.45
11.25 2.41 5.43
11.33 2.38 5.56
11.24 2.41 5.53
11.36 2.09 -0.25
11.24 2.05 -0.25
11.27 2.18 -0.25
11.26 7.17 -0.11
11.26 7.18 -0.01
11.16 7.09 -0.12
11.14 7.11 -0.02
11.19 7.24 -0.10
11.15 7.21 -0.01
11.11 7.18 -0.12
11.23 7.25 0.08
11.22 7.15 0.08
11.26 7.18 0.17
11.25 7.18 0.26
11.15 7.12 0.14
11.15 7.12 0.26
11.26 7.19 0.37
11.24 7.23 0.46
11.25 7.20 0.56
11.15 7.12 0.37
11.16 7.15 0.46
11.15 7.15 0.56
11.26 7.23 0.65
11.24 7.23 0.75
11.14 7.15 0.67
11.16 7.16 0.79
11.25 7.24 0.86
11.25 7.23 0.96
11.24 7.25 1.06
11.16 7.17 0.89
11.14 7.18 0.99
11.14 7.18 1.09
11.11 7.19 0.08
11.17 7.23 0.16
11.13 7.23 0.26
11.15 7.26 0.37
11.15 7.27 0.49
11.19 7.28 0.59
11.09 7.24 0.59
11.12 7.25 0.69
11.15 7.29 0.78
11.16 7.31 0.89
11.11 7.27 0.97
11.17 7.32 1.07
11.09 7.27 1.10
11.64 7.44 3.66
11.47 7.43 3.60
11.38 7.37 3.63
11.99 7.45 3.79
12.17 7.46 3.86
12.07 7.48 3.88
11.88 7.45 3.76
11.91 7.43 3.86
11.79 7.44 3.73
11.71 7.39 3.77
11.51 7.38 3.69
11.33 7.42 3.55
11.24 7.24 1.17
11.24 7.25 1.27
11.14 7.18 1.23
11.25 7.28 1.49
11.23 7.26 1.38
11.23 7.26 1.59
11.23 7.26 1.72
11.15 7.31 1.19
11.15 7.31 1.30
11.15 7.21 1.33
11.17 7.33 1.42
11.16 7.23 1.44
11.08 7.32 1.48
11.18 7.33 1.53
11.09 7.30 1.58
11.09 7.28 1.38
11.08 7.20 1.51
11.23 7.34 1.66
11.15 7.25 1.65
11.14 7.35 1.71
11.20 7.36 1.82
11.08 7.30 1.79
11.21 7.26 1.82
11.13 7.21 1.74
11.11 7.23 1.86
11.24 7.29 1.92
11.18 7.37 1.97
11.08 7.31 1.92
11.19 7.36 2.09
11.21 7.27 2.02
11.12 7.26 2.09
11.08 7.34 2.02
11.12 7.23 1.98
11.17 7.38 2.21
11.22 7.29 2.19
11.12 7.25 2.22
11.09 7.36 2.14
11.18 7.38 2.36
11.18 7.29 2.29
11.09 7.36 2.27
11.08 7.32 2.36
11.16 7.40 2.48
11.10 7.27 2.44
11.05 7.35 2.48
11.17 7.40 2.60
11.19 7.31 2.56
11.09 7.30 2.57
11.07 7.39 2.61
11.21 7.34 2.67
11.09 7.28 2.67
11.17 7.30 2.77
11.16 7.40 2.85
11.06 7.36 2.88
11.06 7.28 2.82
11.18 7.31 2.90
11.18 7.33 3.01
11.09 7.30 2.97
11.05 7.38 3.03
11.07 7.31 3.15
11.05 7.42 3.13
11.16 7.43 3.22
11.07 7.36 3.25
11.19 7.37 3.31
11.17 7.44 3.41
11.08 7.42 3.34
11.07 7.31 3.34
11.22 7.42 3.51
11.16 7.35 3.45
11.05 7.33 3.45
11.05 7.38 3.54
11.16 7.41 3.61
11.07 7.40 3.65
10.96 7.36 3.58
10.86 7.39 3.56
10.77 7.38 3.60
10.67 7.40 3.65
10.57 7.38 3.67
11.16 7.42 3.73
11.07 7.41 3.76
11.16 7.39 3.84
11.15 7.45 3.92
11.07 7.38 3.87
11.15 7.41 4.02
11.07 7.37 3.97
11.17 7.40 4.13
11.07 7.44 4.08
11.09 7.38 4.18
10.50 7.33 3.73
10.41 7.38 3.72
10.34 7.32 3.77
10.19 7.35 3.79
10.11 7.31 3.83
11.14 7.45 4.24
11.06 7.43 4.29
11.16 7.40 4.33
11.16 7.42 4.43
11.07 7.41 4.39
11.16 7.41 4.53
11.07 7.39 4.50
11.17 7.41 4.64
11.05 7.43 4.59
11.06 7.40 4.69
11.12 7.47 4.75
11.09 7.39 4.80
11.15 7.43 4.94
11.05 7.43 4.90
11.16 7.42 5.05
11.07 7.44 5.00
11.16 7.43 5.16
11.07 7.44 5.12
11.09 7.40 5.24
11.04 7.43 5.32
11.15 7.43 5.34
11.16 7.43 5.45
11.06 7.44 5.43
11.15 7.43 5.56
11.05 7.43 5.53
11.26 7.16 -0.25
11.16 7.09 -0.25
11.15 7.22 -0.25
0.23 1.09 3.83
0.34 1.08 3.83
0.44 1.06 3.83
0.55 1.05 3.83
0.66 1.04 3.83
0.76 1.03 3.83
0.87 1.02 3.83
0.98 1.01 3.83
1.08 1.00 3.83
1.19 0.99 3.83
1.30 0.98 3.83
1.40 0.97 3.83
1.51 0.95 3.83
1.62 0.94 3.83
1.72 0.93 3.83
1.83 0.92 3.83
1.94 0.91 3.83
2.04 0.90 3.83
2.15 0.89 3.83
2.25 0.88 3.83
2.36 0.87 3.83
2.47 0.86 3.83
2.57 0.84 3.83
2.68 0.83 3.83
2.79 0.82 3.83
2.89 0.81 3.83
3.00 0.80 3.83
3.11 0.79 3.83
3.21 0.78 3.83
3.32 0.77 3.83
3.43 0.76 3.83
3.53 0.75 3.83
3.64 0.73 3.83
3.75 0.72 3.83
3.85 0.71 3.83
3.96 0.70 3.83
4.07 0.69 3.83
4.17 0.68 3.83
4.28 0.67 3.83
4.39 0.66 3.83
4.49 0.65 3.83
4.60 0.63 3.83
4.71 0.62 3.83
4.81 0.61 3.83
4.92 0.60 3.83
5.03 0.59 3.83
5.13 0.58 3.83
5.24 0.57 3.83
5.35 0.56 3.83
5.45 0.55 3.83
5.56 0.54 3.83
5.67 0.52 3.83
5.77 0.51 3.83
5.88 0.50 3.83
5.98 0.52 3.83
6.08 0.57 3.83
6.17 0.61 3.83
6.27 0.66 3.83
6.37 0.71 3.83
6.47 0.75 3.83
6.56 0.80 3.83
6.66 0.84 3.83
6.76 0.89 3.83
6.85 0.94 3.83
6.95 0.98 3.83
7.05 1.03 3.83
7.14 1.07 3.83
7.24 1.12 3.83
7.34 1.17 3.83
7.43 1.21 3.83
7.53 1.26 3.83
7.63 1.30 3.83
7.72 1.35 3.83
7.82 1.40 3.83
7.92 1.44 3.83
8.01 1.49 3.83
8.11 1.53 3.83
8.21 1.58 3.83
8.30 1.62 3.83
8.40 1.67 3.83
8.50 1.72 3.83
8.60 1.76 3.83
8.69 1.81 3.83
8.79 1.85 3.83
8.89 1.90 3.83
8.98 1.95 3.83
9.08 1.99 3.83
9.18 2.04 3.83
9.27 2.08 3.83
9.37 2.13 3.83
9.47 2.18 3.83
9.56 2.22 3.83
9.66 2.27 3.83
9.76 2.31 3.83
9.85 2.36 3.83
9.95 2.41 3.83
10.05 2.45 3.83
10.14 2.50 3.83
10.24 2.54 3.83
10.30 2.63 3.83
10.29 2.74 3.83
10.29 2.84 3.83
10.28 2.95 3.83
10.28 3.06 3.83
10.28 3.16 3.83
10.27 3.27 3.83
10.27 3.38 3.83
10.26 3.49 3.83
10.26 3.59 3.83
10.25 3.70 3.83
10.25 3.81 3.83
10.25 3.91 3.83
10.24 4.02 3.83
10.24 4.13 3.83
10.23 4.24 3.83
10.23 4.34 3.83
10.22 4.45 3.83
10.22 4.56 3.83
10.21 4.66 3.83
10.21 4.77 3.83
10.21 4.88 3.83
10.20 4.98 3.83
10.20 5.09 3.83
10.19 5.20 3.83
10.19 5.31 3.83
10.18 5.41 3.83
10.18 5.52 3.83
10.18 5.63 3.83
10.17 5.73 3.83
10.17 5.84 3.83
10.16 5.95 3.83
10.16 6.06 3.83
10.15 6.16 3.83
10.15 6.27 3.83
10.14 6.38 3.83
10.14 6.48 3.83
10.14 6.59 3.83
10.13 6.70 3.83
10.13 6.81 3.83
10.12 6.91 3.83
10.12 7.02 3.83
10.11 7.13 3.83
10.11 7.23 3.83
0.07 0.05 5.56
0.17 0.04 5.56
0.27 0.03 5.56
0.37 0.02 5.56
0.48 0.01 5.56
0.58 0.00 5.56
0.68 -0.01 5.56
0.78 -0.02 5.56
0.89 -0.03 5.56
0.99 -0.04 5.56
1.09 -0.05 5.56
1.19 -0.06 5.56
1.29 -0.07 5.56
1.40 -0.08 5.56
1.50 -0.09 5.56
1.60 -0.10 5.56
1.70 -0.10 5.56
1.81 -0.11 5.56
1.91 -0.12 5.56
2.01 -0.13 5.56
2.11 -0.14 5.56
2.21 -0.15 5.56
2.32 -0.16 5.56
2.42 -0.17 5.56
2.52 -0.18 5.56
2.62 -0.19 5.56
2.73 -0.20 5.56
2.83 -0.21 5.56
2.93 -0.22 5.56
3.03 -0.23 5.56
3.13 -0.24 5.56
3.24 -0.25 5.56
3.34 -0.26 5.56
3.44 -0.27 5.56
3.54 -0.28 5.56
3.65 -0.29 5.56
3.75 -0.30 5.56
3.85 -0.31 5.56
3.95 -0.32 5.56
4.05 -0.33 5.56
4.16 -0.34 5.56
4.26 -0.35 5.56
4.36 -0.36 5.56
4.46 -0.37 5.56
4.56 -0.38 5.56
4.67 -0.39 5.56
4.77 -0.39 5.56
4.87 -0.40 5.56
4.97 -0.41 5.56
5.08 -0.42 5.56
5.18 -0.43 5.56
5.28 -0.44 5.56
5.38 -0.45 5.56
5.48 -0.46 5.56
5.59 -0.47 5.56
5.69 -0.48 5.56
5.79 -0.49 5.56
5.89 -0.50 5.56
6.00 -0.51 5.56
6.10 -0.52 5.56
6.21 -0.50 5.56
6.30 -0.45 5.56
6.39 -0.40 5.56
6.48 -0.35 5.56
6.57 -0.30 5.56
6.66 -0.25 5.56
6.75 -0.20 5.56
6.84 -0.15 5.56
6.93 -0.10 5.56
7.02 -0.05 5.56
7.10 0.00 5.56
7.19 0.05 5.56
7.28 0.10 5.56
7.37 0.16 5.56
7.46 0.21 5.56
7.55 0.26 5.56
7.64 0.31 5.56
7.73 0.36 5.56
7.82 0.41 5.56
7.91 0.46 5.56
8.00 0.51 5.56
8.09 0.56 5.56
8.18 0.61 5.56
8.27 0.66 5.56
8.36 0.71 5.56
8.45 0.76 5.56
8.54 0.81 5.56
8.63 0.86 5.56
8.72 0.91 5.56
8.81 0.96 5.56
8.89 1.01 5.56
8.98 1.06 5.56
9.07 1.11 5.56
9.16 1.16 5.56
9.25 1.21 5.56
9.34 1.26 5.56
9.43 1.31 5.56
9.52 1.36 5.56
9.61 1.41 5.56
9.70 1.46 5.56
9.79 1.51 5.56
9.88 1.56 5.56
9.97 1.61 5.56
10.06 1.66 5.56
10.15 1.71 5.56
10.24 1.76 5.56
10.33 1.82 5.56
10.42 1.87 5.56
10.51 1.92 5.56
10.59 1.97 5.56
10.68 2.02 5.56
10.77 2.07 5.56
10.86 2.12 5.56
10.95 2.17 5.56
11.04 2.22 5.56
11.13 2.27 5.56
11.22 2.32 5.56
11.31 2.37 5.56
11.33 2.48 5.56
11.33 2.58 5.56
11.32 2.68 5.56
11.32 2.78 5.56
11.31 2.89 5.56
11.31 2.99 5.56
11.31 3.09 5.56
11.30 3.19 5.56
11.30 3.30 5.56
11.30 3.40 5.56
11.29 3.50 5.56
11.29 3.60 5.56
11.28 3.71 5.56
11.28 3.81 5.56
11.28 3.91 5.56
11.27 4.01 5.56
11.27 4.12 5.56
11.27 4.22 5.56
11.26 4.32 5.56
11.26 4.42 5.56
11.25 4.53 5.56
11.25 4.63 5.56
11.25 4.73 5.56
11.24 4.83 5.56
11.24 4.94 5.56
11.24 5.04 5.56
11.23 5.14 5.56
11.23 5.25 5.56
11.22 5.35 5.56
11.22 5.45 5.56
11.22 5.55 5.56
11.21 5.66 5.56
11.21 5.76 5.56
11.21 5.86 5.56
11.20 5.96 5.56
11.20 6.07 5.56
11.19 6.17 5.56
11.19 6.27 5.56
11.19 6.37 5.56
11.18 6.48 5.56
11.18 6.58 5.56
11.18 6.68 5.56
11.17 6.78 5.56
11.17 6.89 5.56
11.17 6.99 5.56
11.16 7.09 5.56
11.16 7.19 5.56
11.15 7.30 5.56
11.15 7.40 5.56
-0.13 -0.85 3.88
-0.02 -0.86 3.88
0.09 -0.88 3.88
0.20 -0.89 3.88
0.32 -0.90 3.88
0.43 -0.91 3.88
0.54 -0.92 3.88
0.65 -0.94 3.88
0.77 -0.95 3.88
0.88 -0.96 3.88
0.99 -0.97 3.88
1.11 -0.98 3.88
1.22 -1.00 3.88
1.33 -1.01 3.88
1.44 -1.02 3.88
1.56 -1.03 3.87
1.67 -1.04 3.87
1.78 -1.06 3.87
1.89 -1.07 3.87
2.01 -1.08 3.87
2.12 -1.09 3.87
2.23 -1.10 3.87
2.34 -1.12 3.87
2.46 -1.13 3.87
2.57 -1.14 3.87
2.68 -1.15 3.87
2.80 -1.17 3.87
2.91 -1.18 3.87
3.02 -1.19 3.87
3.13 -1.20 3.87
3.25 -1.21 3.87
3.36 -1.23 3.87
3.47 -1.24 3.87
3.58 -1.25 3.87
3.70 -1.26 3.87
3.81 -1.27 3.87
3.92 -1.29 3.87
4.04 -1.30 3.87
4.15 -1.31 3.87
4.26 -1.32 3.86
4.37 -1.33 3.86
4.49 -1.35 3.86
4.60 -1.36 3.86
4.71 -1.37 3.86
4.82 -1.38 3.86
4.94 -1.39 3.86
5.05 -1.41 3.86
5.16 -1.42 3.86
5.27 -1.43 3.86
5.39 -1.44 3.86
5.50 -1.45 3.86
5.61 -1.47 3.86
5.73 -1.48 3.86
5.84 -1.49 3.86
5.95 -1.50 3.86
6.06 -1.51 3.86
6.18 -1.53 3.86
6.29 -1.54 3.86
6.39 -1.48 3.86
6.48 -1.43 3.86
6.58 -1.37 3.86
6.68 -1.31 3.86
6.77 -1.25 3.86
6.87 -1.19 3.86
6.97 -1.13 3.86
7.07 -1.07 3.86
7.16 -1.01 3.86
7.26 -0.96 3.86
7.36 -0.90 3.86
7.45 -0.84 3.86
7.55 -0.78 3.86
7.65 -0.72 3.86
7.74 -0.66 3.86
7.84 -0.60 3.86
7.94 -0.55 3.86
8.04 -0.49 3.86
8.13 -0.43 3.86
8.23 -0.37 3.86
8.33 -0.31 3.86
8.42 -0.25 3.86
8.52 -0.19 3.86
8.62 -0.14 3.86
8.71 -0.08 3.86
8.81 -0.02 3.86
8.91 0.04 3.86
9.00 0.10 3.86
9.10 0.16 3.86
9.20 0.22 3.86
9.30 0.28 3.86
9.39 0.33 3.86
9.49 0.39 3.86
9.59 0.45 3.86
9.68 0.51 3.86
9.78 0.57 3.86
9.88 0.63 3.86
9.97 0.69 3.86
10.07 0.74 3.86
10.17 0.80 3.86
10.27 0.86 3.86
10.36 0.92 3.86
10.46 0.98 3.86
10.56 1.04 3.86
10.65 1.10 3.86
10.75 1.15 3.86
10.85 1.21 3.86
10.94 1.27 3.86
11.04 1.33 3.86
11.14 1.39 3.86
11.24 1.45 3.86
11.33 1.51 3.86
11.43 1.57 3.86
11.53 1.62 3.86
11.62 1.68 3.86
11.72 1.74 3.86
11.82 1.80 3.86
11.91 1.86 3.86
12.01 1.92 3.86
12.11 1.98 3.86
12.20 2.03 3.86
12.30 2.09 3.86
12.31 2.20 3.86
12.31 2.31 3.86
12.30 2.43 3.86
12.30 2.54 3.86
12.29 2.65 3.86
12.29 2.76 3.86
12.28 2.88 3.86
12.28 2.99 3.86
12.27 3.10 3.86
12.27 3.22 3.86
12.26 3.33 3.86
12.25 3.44 3.86
12.25 3.56 3.86
12.24 3.67 3.86
12.24 3.78 3.86
12.23 3.90 3.87
12.23 4.01 3.87
12.22 4.12 3.87
12.22 4.24 3.87
12.21 4.35 3.87
12.21 4.46 3.87
12.20 4.58 3.87
12.20 4.69 3.87
12.19 4.80 3.87
12.19 4.92 3.87
12.18 5.03 3.87
12.18 5.14 3.87
12.17 5.26 3.87
12.17 5.37 3.87
12.16 5.48 3.87
12.16 5.59 3.87
12.15 5.71 3.87
12.15 5.82 3.87
12.14 5.93 3.87
12.14 6.05 3.87
12.13 6.16 3.88
12.13 6.27 3.88
12.12 6.39 3.88
12.12 6.50 3.88
12.11 6.61 3.88
12.11 6.73 3.88
12.10 6.84 3.88
12.10 6.95 3.88
12.09 7.07 3.88
12.09 7.18 3.88
12.08 7.29 3.88
12.07 7.41 3.88
-0.22 0.01 -0.11
-0.21 0.01 -0.01
-0.27 0.13 -0.12
-0.24 0.14 -0.02
-0.13 0.06 -0.10
-0.15 0.11 -0.01
-0.17 0.15 -0.12
-0.14 0.02 0.08
-0.23 0.06 0.08
-0.21 0.01 0.17
-0.20 0.02 0.26
-0.24 0.14 0.14
-0.23 0.13 0.26
-0.19 0.01 0.37
-0.15 0.02 0.46
-0.18 0.02 0.56
-0.23 0.14 0.37
-0.21 0.12 0.46
-0.21 0.12 0.56
-0.16 0.00 0.65
-0.15 0.01 0.75
-0.20 0.14 0.67
-0.20 0.12 0.79
-0.15 0.01 0.86
-0.15 0.01 0.96
-0.14 0.01 1.06
-0.19 0.11 0.89
-0.18 0.13 0.99
-0.17 0.12 1.09
-0.16 0.15 0.08
-0.13 0.09 0.16
-0.12 0.12 0.26
-0.10 0.09 0.37
-0.09 0.10 0.49
-0.09 0.05 0.59
-0.10 0.16 0.59
-0.10 0.12 0.69
-0.07 0.09 0.78
-0.05 0.08 0.89
-0.08 0.13 0.97
-0.05 0.06 1.07
-0.08 0.15 1.10
-0.06 -0.42 3.66
-0.03 -0.26 3.60
-0.05 -0.16 3.63
-0.14 -0.77 3.79
-0.18 -0.94 3.86
-0.13 -0.85 3.88
-0.11 -0.66 3.76
-0.14 -0.68 3.86
-0.10 -0.57 3.73
-0.13 -0.48 3.77
-0.08 -0.29 3.69
0.01 -0.12 3.55
-0.14 0.01 1.17
-0.13 0.01 1.27
-0.17 0.12 1.23
-0.11 -0.01 1.49
-0.12 0.02 1.38
-0.12 0.02 1.59
-0.13 0.02 1.72
-0.05 0.08 1.19
-0.05 0.08 1.30
-0.15 0.11 1.33
-0.04 0.06 1.42
-0.13 0.10 1.44
-0.02 0.14 1.48
-0.04 0.05 1.53
-0.04 0.14 1.58
-0.06 0.15 1.38
-0.14 0.18 1.51
-0.04 0.00 1.66
-0.11 0.10 1.65
-0.01 0.09 1.71
-0.02 0.02 1.82
-0.04 0.15 1.79
-0.12 0.04 1.82
-0.14 0.13 1.74
-0.12 0.14 1.86
-0.09 0.00 1.92
0.00 0.04 1.97
-0.03 0.15 1.92
-0.01 0.03 2.09
-0.11 0.03 2.02
-0.09 0.12 2.09
-0.01 0.14 2.02
-0.12 0.14 1.98
0.01 0.04 2.21
-0.09 0.02 2.19
-0.10 0.13 2.22
0.02 0.13 2.14
0.01 0.03 2.36
-0.08 0.05 2.29
0.01 0.13 2.27
-0.02 0.15 2.36
0.03 0.05 2.48
-0.08 0.14 2.44
0.01 0.16 2.48
0.03 0.04 2.60
-0.06 0.04 2.56
-0.05 0.14 2.57
0.05 0.14 2.61
-0.04 0.02 2.67
-0.06 0.15 2.67
-0.06 0.06 2.77
0.03 0.05 2.85
0.02 0.16 2.88
-0.06 0.18 2.82
-0.06 0.06 2.90
-0.04 0.05 3.01
-0.05 0.14 2.97
0.04 0.16 3.03
-0.03 0.16 3.15
0.08 0.15 3.13
0.06 0.04 3.22
0.02 0.14 3.25
0.00 0.03 3.31
0.07 0.03 3.41
0.07 0.12 3.34
-0.03 0.16 3.34
0.04 -0.02 3.51
-0.02 0.06 3.45
-0.01 0.17 3.45
0.04 0.16 3.54
0.04 0.04 3.61
0.06 0.13 3.65
0.05 0.25 3.58
0.10 0.34 3.56
0.12 0.43 3.60
0.16 0.52 3.65
0.18 0.62 3.67
0.05 0.04 3.73
0.07 0.13 3.76
0.02 0.05 3.84
0.08 0.04 3.92
0.03 0.14 3.87
0.04 0.06 4.02
0.03 0.15 3.97
0.03 0.04 4.13
0.09 0.12 4.08
0.03 0.12 4.18
0.15 0.71 3.73
0.22 0.78 3.72
0.18 0.86 3.77
0.25 1.00 3.79
0.23 1.09 3.83
0.09 0.05 4.24
0.09 0.14 4.29
0.03 0.04 4.33
0.05 0.04 4.43
0.07 0.13 4.39
0.05 0.04 4.53
0.04 0.14 4.50
0.04 0.04 4.64
0.09 0.14 4.59
0.06 0.15 4.69
0.11 0.07 4.75
0.04 0.12 4.80
0.07 0.05 4.94
0.10 0.14 4.90
0.05 0.05 5.05
0.10 0.12 5.00
0.07 0.04 5.16
0.09 0.13 5.12
0.05 0.11 5.24
0.09 0.15 5.32
0.07 0.05 5.34
0.06 0.04 5.45
0.10 0.13 5.43
0.07 0.05 5.56
0.09 0.15 5.53
-0.23 0.02 -0.25
-0.26 0.13 -0.25
-0.13 0.11 -0.25
