15.290775299072266 41.612762451171875 17.089990615844727
14.916389465332031 42.02250671386719 17.90321636199951
-0.6809329986572266 46.99932098388672 15.372082710266113
12.932342529296875 38.99356460571289 15.538614273071289
18.34097671508789 44.61552047729492 16.705699920654297
-1.4260215759277344 45.79690170288086 15.480003356933594
-39.6905460357666 35.845890045166016 6.123257637023926
1.1284160614013672 44.820125579833984 13.68641185760498
0.5686912536621094 44.77682876586914 13.740483283996582
12.493423461914062 40.01012420654297 15.109967231750488
13.187915802001953 39.213478088378906 14.07723331451416
-0.030965805053710938 44.35898208618164 14.123285293579102
17.942413330078125 42.99484634399414 13.693921089172363
0.8857097625732422 47.377864837646484 11.534605026245117
-5.479433059692383 43.98036193847656 9.432389259338379
-3.3314037322998047 41.781681060791016 9.894708633422852
16.89828872680664 37.0234375 11.633099555969238
12.67905044555664 39.63508987426758 12.73387336730957
-1.4937934875488281 41.84937286376953 12.270865440368652
15.717933654785156 36.42783737182617 14.46845531463623
1.1198921203613281 45.812992095947266 14.105627059936523
-0.0309600830078125 45.58943557739258 14.481083869934082
-3.051586151123047 43.61859893798828 15.090263366699219
16.314598083496094 41.55158233642578 17.716917037963867
15.903255462646484 40.53683090209961 18.700271606445312
15.158443450927734 41.207496643066406 17.92411231994629
14.94217300415039 45.18614196777344 17.887868881225586
17.16021728515625 40.39647674560547 16.89387321472168
16.689430236816406 41.4068603515625 16.73391056060791
-0.8569164276123047 44.432456970214844 15.883565902709961
18.36290740966797 44.6196174621582 16.899858474731445
-3.2647476196289062 44.88185119628906 14.842500686645508
-0.6118297576904297 46.397335052490234 15.512324333190918
12.726348876953125 37.40639114379883 14.711277961730957
12.27951431274414 40.19274139404297 14.882469177246094
13.116405487060547 39.005836486816406 14.116156578063965
12.561412811279297 39.20497512817383 14.478403091430664
-59.44678497314453 31.366230010986328 4.296761989593506
10.183944702148438 40.392032623291016 13.654505729675293
12.014076232910156 37.9728889465332 14.224784851074219
-0.031047821044921875 45.55073928833008 14.681709289550781
12.773643493652344 38.26836395263672 14.10548210144043
12.933311462402344 38.6441535949707 13.899347305297852
-1.2459945678710938 42.795867919921875 13.472259521484375
1.5324592590332031 20.545230865478516 0.6812763214111328
9.92822265625 40.39400863647461 13.488144874572754
-3.0039939880371094 43.81850051879883 12.157334327697754
-5.958881378173828 44.08924102783203 6.533938407897949
-58.806596755981445 32.64607238769531 3.9159087538719177
-6.630807876586914 48.204315185546875 12.698225975036621
12.15481948852539 38.9885139465332 13.135826110839844
-2.7248401641845703 49.43734359741211 6.706065893173218
12.586181640625 48.1811408996582 12.733259201049805
-3.851747512817383 49.99051284790039 13.078140258789062
11.146072387695312 46.83634567260742 12.295562744140625
-43.69301414489746 36.015045166015625 2.6893103420734406
-3.9447593688964844 51.86245346069336 10.412683963775635
-6.444065093994141 47.431007385253906 10.292137622833252
-4.667623519897461 48.2039794921875 12.311952590942383
19.381790161132812 45.17345428466797 7.310941696166992
-44.24397277832031 36.20021057128906 4.518115401268005
16.27135467529297 45.0582160949707 10.024359226226807
17.395198822021484 42.946815490722656 10.771023273468018
13.57778549194336 43.97032165527344 10.074872970581055
17.330486297607422 44.354209899902344 10.540903568267822
-6.940029144287109 47.36506271362305 7.28438663482666
-3.194408416748047 52.986907958984375 9.665827751159668
16.187908172607422 43.75398254394531 9.745494365692139
12.222984313964844 43.559417724609375 9.30044174194336
-4.648529052734375 52.88077163696289 4.722870349884033
11.382423400878906 43.052513122558594 13.110015869140625
-3.2961292266845703 46.565799713134766 11.86972713470459
-0.8181266784667969 50.950992584228516 11.841230392456055
-5.106996536254883 48.21503448486328 12.496827125549316
-3.425922393798828 45.98766326904297 13.12961196899414
-6.036928176879883 47.019920349121094 13.126848220825195
11.003223419189453 46.817840576171875 12.880132675170898
-2.6823158264160156 50.42734909057617 12.08642578125
0.3077106475830078 47.3916130065918 12.288312911987305
-57.85529708862305 28.311338424682617 2.8374556601047516
13.123172760009766 46.43427658081055 13.265409469604492
-5.073644638061523 47.405914306640625 11.871489524841309
12.779823303222656 43.80789566040039 11.929851531982422
-1.6575489044189453 48.22111511230469 9.47781229019165
-5.700084686279297 46.590415954589844 6.675159931182861
-2.8685989379882812 48.06786346435547 5.455114841461182
-0.30069541931152344 48.20384979248047 12.546021461486816
-44.69770050048828 37.430057525634766 10.32548475265503
-1.8190574645996094 46.61083221435547 12.437747955322266
12.686260223388672 44.39936065673828 11.711321830749512
13.924190521240234 48.13709259033203 12.729618072509766
15.412185668945312 37.1817741394043 11.992847442626953
12.548057556152344 43.80670166015625 12.046964645385742
15.76076889038086 42.817230224609375 12.248863220214844
-0.9186687469482422 49.41353225708008 13.087969779968262
14.181724548339844 45.16984176635742 12.471219062805176
0.7693023681640625 49.96155548095703 11.85932445526123
-3.069164276123047 44.961151123046875 12.722881317138672
-0.8659229278564453 48.41603469848633 12.909122467041016
15.550537109375 41.39006423950195 11.920533180236816
-41.061689376831055 36.9691047668457 5.02971339225769
13.135536193847656 39.81965637207031 8.71481466293335
-2.867412567138672 44.59435272216797 6.088751792907715
-6.453836441040039 53.40129470825195 5.498105764389038
-3.9962997436523438 49.32669448852539 10.677913665771484
17.38064956665039 46.9815788269043 11.68078899383545
-1.4583854675292969 48.822662353515625 10.217254638671875
-0.23084259033203125 49.641929626464844 10.509227752685547
-0.20906448364257812 50.22270965576172 10.512551307678223
-2.47943115234375 49.84111022949219 10.503277778625488
-3.8169689178466797 49.008628845214844 12.312764167785645
-0.2539081573486328 46.80717468261719 12.112225532531738
-6.671876907348633 45.40829849243164 12.107337951660156
-47.290985107421875 36.94234848022461 4.4670528173446655
-3.78729248046875 44.780662536621094 11.935036659240723
-7.069377899169922 48.39158630371094 11.700055122375488
14.022506713867188 37.5882682800293 8.481994152069092
14.336177825927734 43.58424377441406 7.139813423156738
-6.410310745239258 46.76137924194336 4.3055338859558105
-59.083892822265625 31.997406005859375 2.034456431865692
10.383125305175781 40.51644515991211 10.106733798980713
12.744102478027344 40.58103942871094 10.952553749084473
-2.7896347045898438 44.91264343261719 11.094141960144043
14.436729431152344 44.631534576416016 10.95576810836792
-5.249914169311523 45.18772888183594 11.103271484375
12.135486602783203 47.41101837158203 11.089816093444824
-2.2190990447998047 44.212493896484375 11.304466247558594
-1.2742919921875 49.18989181518555 11.497912406921387
19.588756561279297 43.25638961791992 11.330809593200684
-7.45439338684082 47.606014251708984 10.88517713546753
-7.054752349853516 47.79692077636719 7.527475833892822
-60.01611328125 30.049867630004883 4.879565119743347
-3.234556198120117 49.79356384277344 5.489286661148071
-3.187694549560547 44.84690475463867 9.54427719116211
12.255569458007812 42.7634162902832 10.399311065673828
-2.8837013244628906 44.61572265625 9.89939022064209
-3.8184280395507812 50.41679763793945 8.752201080322266
-7.287736892700195 48.00168228149414 10.295740604400635
-5.296972274780273 47.12042999267578 8.716032981872559
13.718952178955078 48.27372741699219 10.493925094604492
20.37051773071289 42.99368667602539 10.460901260375977
-33.265536308288574 11.632648468017578 0.666163444519043
12.941871643066406 46.40530014038086 10.52159309387207
19.378589630126953 43.01986312866211 10.502561569213867
-2.247282028198242 47.427677154541016 9.302619457244873
-5.669944763183594 46.16432189941406 7.91484260559082
-3.387094497680664 47.259098052978516 5.119553327560425
17.18140411376953 40.40736770629883 9.970342636108398
11.945316314697266 45.3956184387207 9.111904621124268
12.315444946289062 45.653236389160156 9.078672409057617
-3.285757064819336 45.803375244140625 9.297834873199463
-6.097890853881836 45.57130813598633 9.11428165435791
-6.69755744934082 46.43572235107422 9.476908683776855
-6.458127975463867 46.23851013183594 9.684488296508789
-0.9640598297119141 50.2696418762207 10.043798446655273
-3.8721790313720703 51.80809020996094 10.097570419311523
13.709362030029297 42.19397735595703 9.711575984954834
11.978492736816406 44.245704650878906 9.505825519561768
19.714576721191406 38.63954162597656 8.882281303405762
12.597888946533203 41.7515754699707 8.345702171325684
19.028884887695312 39.19443893432617 8.128291130065918
20.492374420166016 24.91353988647461 0.5300402641296387
-5.834468841552734 51.4298095703125 5.282410144805908
9.329524993896484 39.85905456542969 13.119455337524414
9.933361053466797 40.19620132446289 12.891778945922852
15.208518981933594 37.00761795043945 12.051331520080566
-1.0610466003417969 44.7790641784668 12.9732027053833
11.363800048828125 40.763450622558594 12.720930099487305
-2.6480751037597656 42.44914245605469 12.808770179748535
-5.606075286865234 43.41135025024414 12.072731018066406
-5.25166130065918 44.785255432128906 13.12635612487793
-0.4821052551269531 41.61377716064453 11.502278327941895
-5.055240631103516 44.56349563598633 13.293479919433594
-1.3932075500488281 41.014617919921875 11.483647346496582
10.76541519165039 39.81430435180664 12.463872909545898
32.74726104736328 -29.007661819458008 1.0087543725967407
9.399005889892578 40.23503494262695 12.561737060546875
15.730049133300781 37.83235549926758 12.509419441223145
-2.810525894165039 44.032501220703125 13.3005952835083
1.13177490234375 46.791072845458984 12.495737075805664
9.961082458496094 40.60362243652344 12.302927017211914
-0.6866607666015625 43.00156021118164 12.670539855957031
-3.6669139862060547 42.40170669555664 12.096395492553711
1.080026626586914 46.109683990478516 8.250643730163574
0.2790107727050781 42.516231536865234 6.751519203186035
-51.485544204711914 34.834293365478516 2.908594995737076
-5.646871566772461 44.19975280761719 4.101855516433716
1.512746810913086 46.18578338623047 13.112590789794922
0.5414962768554688 46.0147705078125 12.889932632446289
-0.04732322692871094 47.592002868652344 12.73253345489502
-2.659456253051758 44.00227737426758 11.102499008178711
-3.034412384033203 41.987117767333984 11.458523750305176
14.119861602783203 40.39483642578125 11.886550903320312
1.6995048522949219 45.58418273925781 11.097606658935547
18.228740692138672 46.863182067871094 14.288200378417969
16.508647918701172 37.23404312133789 11.855557441711426
18.00998306274414 39.35470962524414 10.88145923614502
1.3340492248535156 49.45063781738281 11.757417678833008
0.6869544982910156 43.394386291503906 11.270331382751465
-0.43820762634277344 43.956298828125 12.49040412902832
0.1551342010498047 41.782379150390625 11.289363861083984
-3.280893325805664 42.79890060424805 12.50521183013916
-4.658918380737305 44.799625396728516 12.694247245788574
16.61054229736328 37.61518478393555 11.729377746582031
0.5713100433349609 47.229225158691406 11.73652172088623
14.368526458740234 39.24495315551758 11.714208602905273
11.955268859863281 38.413063049316406 11.50158405303955
-1.6911392211914062 44.414306640625 9.081465244293213
-43.64302444458008 37.94374084472656 7.43963623046875
-4.438999176025391 43.65364456176758 5.240658283233643
2.325580596923828 41.99446105957031 5.113291263580322
14.529052734375 38.997867584228516 11.893628120422363
14.747943878173828 38.426998138427734 11.538405418395996
0.33790016174316406 43.00032424926758 11.509926795959473
12.70999526977539 39.864723205566406 11.480182647705078
-1.4733085632324219 41.395931243896484 11.103188514709473
-0.8839263916015625 51.1729621887207 11.487378120422363
-1.0552921295166016 41.00830841064453 11.507726669311523
-5.227161407470703 44.18349075317383 11.485125541687012
-7.009273529052734 44.07581329345703 11.460556983947754
0.5295524597167969 45.190799713134766 12.10096263885498
-4.853616714477539 44.60512161254883 11.91357421875
15.983573913574219 36.995697021484375 11.300813674926758
-0.8678703308105469 48.3607177734375 11.062097549438477
-6.683309555053711 44.46091842651367 12.056480407714844
18.335716247558594 37.839595794677734 11.247283935546875
-5.707527160644531 46.418460845947266 11.236093521118164
12.373126983642578 38.79493713378906 10.907618045806885
18.254440307617188 36.74842071533203 9.903923988342285
15.825347900390625 38.646488189697266 8.799284934997559
14.430076599121094 36.365970611572266 7.009591579437256
-43.136552810668945 39.06114959716797 2.6425223350524902
16.315025329589844 35.97118377685547 5.334417343139648
15.525863647460938 40.18428421020508 11.088582038879395
-2.4221134185791016 42.40040969848633 10.053562641143799
-1.2246341705322266 50.95234298706055 11.335235595703125
-2.9670066833496094 44.08527374267578 9.57466459274292
16.732833862304688 35.60927200317383 10.696288585662842
-3.8602962493896484 42.61151885986328 10.909993171691895
1.3112831115722656 50.38521957397461 11.487229347229004
-1.654306411743164 41.590267181396484 11.080561637878418
0.5585365295410156 43.406410217285156 11.285232543945312
1.1504573822021484 51.354557037353516 10.307195663452148
-45.67513656616211 35.96527862548828 3.050540454685688
9.753765106201172 37.448246002197266 10.682360649108887
-2.2845420837402344 42.57950973510742 11.135208129882812
16.21503448486328 36.382301330566406 10.525570392608643
-6.265369415283203 44.79888153076172 11.109599113464355
11.831924438476562 38.03193664550781 9.84619426727295
-5.27099609375 46.68010330200195 11.7814359664917
15.580387115478516 37.247920989990234 7.377081394195557
0.8857936859130859 42.51637649536133 6.1842052936553955
-59.88825607299805 32.244197845458984 9.943819522857666
18.721416473388672 38.77873229980469 10.73334789276123
-0.23450851440429688 42.022945404052734 10.304736614227295
-1.4765853881835938 49.195899963378906 10.510826110839844
-3.866140365600586 45.21232223510742 9.2881498336792
-4.861909866333008 44.42485427856445 9.4568510055542
-0.8700637817382812 40.4066276550293 10.310299396514893
18.7144775390625 36.2415657043457 10.250129699707031
-1.5631752014160156 40.94371795654297 10.441981315612793
-7.265398025512695 44.553810119628906 10.326229572296143
17.793228149414062 38.40861129760742 10.333568096160889
-1.2947139739990234 48.00377655029297 10.68371868133545
-0.2879180908203125 41.80073928833008 10.45546817779541
19.52581024169922 37.41093444824219 10.502225399017334
15.584388732910156 39.222328186035156 10.172757148742676
-7.457132339477539 47.799102783203125 10.293667793273926
15.829727172851562 38.67494201660156 8.915992736816406
13.809455871582031 37.272544860839844 7.7859907150268555
13.51186752319336 35.18080520629883 7.273338794708252
16.291114807128906 36.730552673339844 6.7840352058410645
-5.331977844238281 45.51389694213867 4.755684971809387
12.580799102783203 39.99977493286133 10.093920230865479
10.755123138427734 37.61936569213867 9.021515369415283
-53.474708557128906 35.21113586425781 3.046447277069092
10.356040954589844 37.63810348510742 9.739543437957764
-3.463186264038086 42.813785552978516 9.305883884429932
18.29694366455078 37.28120422363281 6.514460563659668
-4.79066276550293 43.16096496582031 9.545778751373291
-7.732332229614258 46.6402587890625 8.163557529449463
17.35296630859375 37.40141677856445 12.696680068969727
19.651416778564453 37.85712432861328 9.69409465789795
-1.26641845703125 51.200927734375 8.705891609191895
-2.2541275024414062 43.397743225097656 9.967676162719727
14.348381042480469 39.79475784301758 9.679644584655762
-5.420238494873047 48.191917419433594 9.895540237426758
11.959407806396484 39.60296630859375 9.329326152801514
11.942134857177734 37.78993606567383 8.890686988830566
17.967510223388672 37.09794616699219 8.635696411132812
-61.623870849609375 32.78067398071289 5.843263387680054
1.7764396667480469 41.891700744628906 6.883486986160278
-3.858938217163086 44.03844451904297 6.131508111953735
1.3472766876220703 42.56486511230469 5.347093105316162
-3.236797332763672 47.58311080932617 2.512812465429306
15.801361083984375 23.941356658935547 0.9686791896820068
18.95596694946289 24.7283992767334 0.9783229827880859
-5.258844375610352 48.86061096191406 7.508532524108887
16.11740493774414 41.587013244628906 11.514249801635742
-6.671329498291016 51.19630813598633 8.344720840454102
-2.139415740966797 47.999908447265625 9.502785682678223
-6.268238067626953 46.40742492675781 9.338691234588623
-7.504817962646484 49.95246124267578 7.313902378082275
16.256385803222656 44.288429260253906 8.732715129852295
-2.7427005767822266 49.83135986328125 5.984744071960449
-6.221851348876953 49.58572006225586 7.8755950927734375
-6.830350875854492 51.59388732910156 7.102989196777344
19.197113037109375 44.61158752441406 7.562906265258789
18.55005645751953 44.82830810546875 7.547916412353516
-6.109962463378906 48.61205291748047 6.665616035461426
-3.650003433227539 45.01991271972656 9.252689838409424
11.9315185546875 41.57907485961914 9.905078411102295
-6.90489387512207 47.97370910644531 10.470596313476562
18.155311584472656 37.586116790771484 11.547126770019531
15.332931518554688 41.00786209106445 11.502978324890137
13.790252685546875 45.238014221191406 11.53925609588623
12.309158325195312 44.59430694580078 10.680368900299072
-43.645315170288086 35.477352142333984 2.9658906906843185
17.570972442626953 39.42177963256836 11.506880760192871
-6.450061798095703 47.75440979003906 10.278641700744629
14.293937683105469 39.759395599365234 9.127701759338379
-3.6858348846435547 44.64078140258789 6.516698598861694
-2.6774768829345703 44.23569869995117 10.478772163391113
-1.127359390258789 48.3087043762207 4.863305687904358
-5.523382186889648 45.78237533569336 7.42545223236084
19.828826904296875 42.46339797973633 10.606666088104248
11.71466064453125 41.79515838623047 10.087397575378418
-0.6113548278808594 41.790096282958984 9.956899642944336
-1.589578628540039 48.16392517089844 9.938011169433594
15.31298828125 43.76878356933594 9.727805614471436
-0.6818141937255859 49.47066879272461 10.042352676391602
19.140113830566406 43.178009033203125 11.098616600036621
-2.705059051513672 46.21923065185547 9.345516681671143
-46.25041389465332 35.1840705871582 3.299144208431244
-3.7579097747802734 44.46060562133789 6.596081733703613
-41.854552268981934 39.19783401489258 1.7017335891723633
-7.113868713378906 49.90821075439453 6.598820447921753
16.309520721435547 42.392276763916016 13.327288627624512
-2.48162841796875 48.21573257446289 8.901180267333984
18.898822784423828 39.379940032958984 10.125170230865479
14.661720275878906 44.24384689331055 9.908476829528809
15.26885986328125 42.437503814697266 8.733492851257324
16.52847671508789 41.609275817871094 10.083587646484375
19.58211898803711 43.14382553100586 10.269159317016602
-5.865522384643555 45.42796325683594 8.515034675598145
-0.1071624755859375 40.679344177246094 10.044531345367432
-42.09932231903076 38.83740234375 1.699604868888855
1.9703693389892578 43.64512252807617 7.058813571929932
11.707374572753906 39.04079818725586 8.689559936523438
-0.19153213500976562 49.658203125 12.803095817565918
-46.34693908691406 35.962005615234375 8.632009983062744
16.08450698852539 40.59818649291992 9.100278377532959
-4.503347396850586 45.83384704589844 7.507142543792725
16.404800415039062 42.197933197021484 18.8370418548584
18.92743682861328 38.970272064208984 6.982631206512451
-2.905536651611328 46.5621337890625 6.459775447845459
-2.021900177001953 43.98685836791992 7.061820983886719
-3.2876510620117188 45.192832946777344 7.295416831970215
19.133705139160156 44.690406799316406 6.89845085144043
19.267669677734375 39.1881103515625 8.654413223266602
14.489715576171875 42.018619537353516 8.136200904846191
-3.445047378540039 44.58742141723633 6.70819878578186
20.15625762939453 43.62849426269531 7.268252849578857
-37.225460052490234 40.98183059692383 1.6694461107254028
14.1177978515625 40.587249755859375 6.925366640090942
-7.486660003662109 47.81268310546875 5.905879259109497
-7.0652923583984375 45.77558135986328 6.102863311767578
15.966503143310547 42.19843673706055 6.2956202030181885
-5.134096145629883 49.53409957885742 6.111382246017456
0.8965377807617188 46.57603454589844 5.887120723724365
-7.652179718017578 47.9921875 6.101388216018677
18.522022247314453 38.98958969116211 7.712199687957764
17.541717529296875 37.82693099975586 13.921452522277832
-5.53013801574707 53.09121322631836 4.732487440109253
-36.45418834686279 40.8213996887207 3.0960521325469017
13.062213897705078 36.98516082763672 6.364394187927246
-53.02493858337402 16.78183364868164 8.489061832427979
11.546165466308594 39.371952056884766 8.658175945281982
-38.36040782928467 35.646785736083984 5.386580228805542
12.69888687133789 38.19676971435547 9.49302625656128
-6.112567901611328 45.27312469482422 10.141603469848633
15.728694915771484 35.82067108154297 11.100831031799316
-2.912485122680664 43.6384162902832 10.663057804107666
-3.221599578857422 41.37248229980469 10.509841918945312
10.938491821289062 46.00608444213867 11.327951431274414
-36.16712951660156 39.08681869506836 9.345287799835205
2.1359901428222656 45.24580001831055 10.8948655128479
-1.0954246520996094 40.997108459472656 10.721538543701172
12.135246276855469 38.18782043457031 10.469569683074951
-45.794782638549805 33.963443756103516 6.263624668121338
-36.26487445831299 39.36039733886719 9.362691879272461
-3.024433135986328 43.609527587890625 10.734386444091797
18.920032501220703 37.39177322387695 11.686174392700195
18.92758560180664 36.761932373046875 11.431047439575195
-34.25847053527832 39.997798919677734 8.89841079711914
14.722061157226562 37.17436599731445 10.869956970214844
-0.8582496643066406 49.19511413574219 9.683698654174805
17.26177978515625 36.455142974853516 10.132816314697266
18.309085845947266 36.92006301879883 8.137532711029053
-7.529806137084961 46.21125793457031 7.042752742767334
-34.340527057647705 41.61614227294922 4.237542152404785
-5.068302154541016 44.810462951660156 5.040623664855957
-35.79628276824951 37.98739242553711 2.5228352546691895
-35.902405738830566 39.932472229003906 3.216028869152069
-44.763824462890625 38.17238235473633 4.477283716201782
-43.85052680969238 37.05523681640625 2.314244508743286
-44.24179267883301 36.597755432128906 1.3156753778457642
-36.8175163269043 36.39603042602539 2.7611008137464523
-33.179606437683105 40.002220153808594 5.74165940284729
1.2864437103271484 43.55235290527344 6.331022262573242
-5.473573684692383 45.401275634765625 7.639917373657227
1.1573848724365234 43.4520149230957 8.718520164489746
19.504642486572266 37.23347854614258 8.822679996490479
-34.42931270599365 40.05675506591797 10.112069606781006
10.747894287109375 37.03267288208008 9.900423526763916
-36.88337707519531 38.62310028076172 10.251843452453613
-6.089031219482422 46.54786682128906 4.432950973510742
-37.50441265106201 38.367706298828125 8.46926498413086
12.925621032714844 38.203025817871094 10.296258926391602
18.887306213378906 37.208335876464844 9.334115505218506
-35.33318328857422 38.41967010498047 8.265356063842773
11.5445556640625 39.198455810546875 9.658839225769043
17.748191833496094 39.19422912597656 10.898226261138916
-1.4709320068359375 43.79368591308594 9.916181564331055
-4.481576919555664 43.24595642089844 9.899485111236572
19.536659240722656 37.426429748535156 10.895918846130371
-8.057355880737305 47.75328826904297 9.65165090560913
0.7316036224365234 50.60307312011719 9.891219139099121
0.000400543212890625 50.97505569458008 9.571833610534668
-0.8380279541015625 49.11198043823242 9.298599243164062
15.301361083984375 39.774627685546875 9.685547828674316
16.141407012939453 36.83638000488281 9.301194667816162
16.040218353271484 36.91607666015625 7.437783718109131
-43.652170181274414 38.140296936035156 6.121723413467407
19.307880401611328 40.27979278564453 7.34169340133667
-34.0278639793396 37.2327766418457 3.072544179856777
-42.79661178588867 38.31502151489258 1.9591991901397705
-44.04527473449707 37.173892974853516 1.1065911054611206
-34.8359751701355 39.77476119995117 1.9107738733291626
-36.07198905944824 37.186927795410156 3.0765370577573776
-0.5802211761474609 44.1308708190918 7.090230941772461
-6.217523574829102 44.201622009277344 6.569328784942627
-35.8749885559082 36.7630615234375 7.696352005004883
-3.7584266662597656 43.433998107910156 8.26883602142334
-7.674867630004883 46.60554504394531 8.494080543518066
-2.8832645416259766 46.38544845581055 8.722631454467773
16.963821411132812 35.59113311767578 9.885891914367676
-36.37061595916748 39.366943359375 9.390626907348633
-4.086437225341797 44.0365104675293 8.87807559967041
-4.882530212402344 43.03829574584961 8.898492813110352
11.738086700439453 38.8585090637207 9.498936176300049
-39.27718639373779 38.234947204589844 9.291373252868652
-58.58992385864258 33.76414108276367 4.172071933746338
-36.05967426300049 37.379608154296875 8.282546520233154
-7.29661750793457 46.397560119628906 8.849124908447266
-40.86180305480957 39.83143997192383 3.3147591650485992
-6.130138397216797 48.14616394042969 10.766210556030273
19.381698608398438 37.05933380126953 8.550430297851562
-58.00165939331055 32.91685485839844 2.4839879274368286
18.079315185546875 38.38629913330078 10.129971981048584
-4.063682556152344 42.59703063964844 8.92683744430542
-2.048492431640625 42.03095245361328 8.938484191894531
-1.8956794738769531 42.167789459228516 8.66667127609253
-2.0755481719970703 42.782981872558594 12.656740188598633
-38.29777908325195 37.34493637084961 8.700183391571045
-33.28470802307129 41.62975311279297 5.570247411727905
19.551898956298828 37.36543273925781 8.533664226531982
2.333921432495117 45.232513427734375 6.277903318405151
19.542354583740234 39.15758514404297 7.246077060699463
-53.40529251098633 16.19582748413086 3.1599796265363693
-33.874242305755615 38.59421157836914 4.5472352504730225
-44.27177619934082 39.20671463012695 2.480341613292694
11.343955993652344 39.41291427612305 13.113512992858887
-36.2920560836792 37.18809509277344 1.3547461032867432
-4.783260345458984 43.8994255065918 4.61257791519165
-4.045867919921875 44.65350341796875 5.569356441497803
-34.858205795288086 37.64750289916992 6.653090000152588
-7.310794830322266 46.358367919921875 6.708574295043945
-35.50247287750244 39.75065612792969 7.730179309844971
-4.052040100097656 43.010398864746094 7.67999267578125
-33.986454010009766 40.3011474609375 8.318396091461182
-35.20213603973389 38.204261779785156 8.307260513305664
-35.2903356552124 37.61942672729492 8.402161121368408
1.7039737701416016 45.800384521484375 13.525651931762695
-3.073486328125 44.193904876708984 10.160104274749756
11.33651351928711 38.77959060668945 8.8767991065979
-38.155056953430176 37.77601623535156 8.246851444244385
-6.501604080200195 45.78603744506836 7.906571388244629
-35.28348255157471 37.173831939697266 8.488250732421875
9.529582977294922 38.999908447265625 8.695721626281738
-59.30915069580078 30.588537216186523 1.300025463104248
-38.29413414001465 37.02019500732422 8.287066459655762
10.96603775024414 39.06968307495117 8.722188472747803
-4.63555908203125 42.58420181274414 8.123936176300049
-37.270212173461914 38.60610580444336 5.89220404624939
10.751117706298828 39.21371078491211 8.475070476531982
1.4829959869384766 42.56623840332031 7.691076755523682
12.879592895507812 43.22257995605469 7.071774005889893
-5.886659622192383 44.58547592163086 6.5392069816589355
12.948657989501953 36.20032501220703 6.46013331413269
-33.855831146240234 41.798980712890625 4.301885724067688
2.149625778198242 41.98253631591797 5.101155519485474
-42.65457725524902 37.245452880859375 3.063703343272209
-33.37247085571289 37.90415954589844 2.905868001282215
2.912473678588867 20.06143569946289 1.0525405406951904
-35.466919898986816 38.189796447753906 3.280675321817398
-32.065030097961426 11.950508117675781 0.6975834369659424
-33.055378913879395 41.806610107421875 2.5036252439022064
-1.1185932159423828 41.633731842041016 5.88405179977417
1.469015121459961 42.26704406738281 6.112086296081543
-4.662628173828125 44.7982292175293 6.476701736450195
-34.47363042831421 38.00745391845703 6.839101552963257
11.099369049072266 36.629154205322266 7.125670433044434
-1.2833423614501953 40.838897705078125 10.873523712158203
-39.069729804992676 37.609642028808594 6.327629089355469
-39.7698917388916 37.6765022277832 6.295239448547363
-40.28912544250488 37.88569641113281 6.354477167129517
-4.756492614746094 44.797698974609375 7.229828357696533
15.411148071289062 43.14712905883789 8.305004119873047
-39.84314823150635 37.652828216552734 6.7543487548828125
10.493865966796875 38.42266082763672 7.949007987976074
-38.2452392578125 37.154598236083984 7.065895080566406
-8.080160140991211 46.21383285522461 7.102344036102295
-5.831504821777344 43.81486129760742 11.767528533935547
9.591331481933594 40.016483306884766 7.902486324310303
-38.48184871673584 37.18443298339844 5.295810222625732
14.554996490478516 42.02613067626953 13.3016357421875
-34.06865453720093 39.61406707763672 7.687347412109375
19.55162811279297 36.81105041503906 8.707944393157959
-5.655813217163086 45.439979553222656 7.0970988273620605
-39.66347312927246 37.60655212402344 6.898792743682861
-42.652167320251465 38.40340042114258 6.307495832443237
-33.790316104888916 40.318931579589844 4.441458582878113
18.40749740600586 39.0150260925293 8.06264352798462
-58.40068244934082 34.27937316894531 5.753171682357788
-1.2276115417480469 44.26638412475586 14.4403657913208
-1.872995376586914 47.17229461669922 10.20850658416748
14.906192779541016 45.15825271606445 8.750230312347412
12.302604675292969 46.381996154785156 11.829228401184082
11.90677261352539 40.25918197631836 14.050590515136719
-6.442264556884766 47.7988395690918 13.676905632019043
11.918041229248047 39.40915298461914 16.08334255218506
-6.032390594482422 47.96607971191406 6.471375226974487
-5.491823196411133 47.18635177612305 8.26765251159668
9.941276550292969 38.18172073364258 10.30164623260498
-34.264923095703125 39.54765701293945 6.920625925064087
13.507728576660156 36.414146423339844 9.096978187561035
16.875919342041016 46.50289535522461 7.7723588943481445
-58.606910705566406 31.498760223388672 1.7595734596252441
-4.227817535400391 50.068702697753906 11.323339462280273
16.277313232421875 37.51174545288086 11.109731674194336
-0.44867515563964844 41.415000915527344 12.313992500305176
17.74190902709961 35.76848602294922 7.335812091827393
16.74486541748047 43.6261100769043 14.87509822845459
14.9630126953125 38.17559814453125 14.31016731262207
-0.0870819091796875 47.798828125 13.099189758300781
15.139911651611328 44.78084945678711 16.338050842285156
13.576950073242188 41.59158706665039 14.68759536743164
-37.65266418457031 38.4138298034668 2.5120790898799896
17.754234313964844 35.38702392578125 7.08361291885376
13.773483276367188 40.006187438964844 12.700833320617676
-45.0432186126709 36.02019119262695 8.841559410095215
0.1394214630126953 -37.27839660644531 1.249125361442566
-36.065794944763184 39.8129997253418 9.88572072982788
32.718196868896484 -29.400300979614258 1.0835254192352295
14.008098602294922 44.3051872253418 8.975005626678467
-3.851797103881836 43.62025451660156 3.951829195022583
13.356483459472656 40.023963928222656 12.306724548339844
30.943016052246094 -30.17943000793457 1.0770199298858643
-1.79376220703125 43.767295837402344 7.5406646728515625
-1.565969467163086 43.28630447387695 6.698276996612549
13.777137756347656 37.96589279174805 13.317445755004883
-5.833440780639648 44.57653045654297 6.093741178512573
-33.33480215072632 39.542964935302734 7.866662502288818
-57.662790298461914 22.89335060119629 3.281340777873993
15.028739929199219 45.901519775390625 10.156169414520264
-3.113271713256836 42.89170455932617 5.8340818881988525
36.52444076538086 -28.19955062866211 0.9493451118469238
14.13437271118164 40.198429107666016 17.87470817565918
-1.4473915100097656 49.341400146484375 5.920397043228149
12.062641143798828 45.684417724609375 9.537774562835693
-6.270635604858398 44.79412841796875 10.891966819763184
17.831401824951172 36.81326675415039 8.73904275894165
16.077919006347656 40.773948669433594 8.923036098480225
17.17357635498047 35.01569747924805 8.472944736480713
15.019657135009766 44.53841781616211 14.463079452514648
13.377395629882812 37.559322357177734 15.51376724243164
17.363323211669922 36.063575744628906 8.147247314453125
16.381271362304688 42.55927276611328 5.772597789764404
-0.3963947296142578 46.76728057861328 15.902668952941895
-0.5540866851806641 43.06529998779297 5.88185977935791
-3.9931373596191406 45.19781494140625 9.679662704467773
14.326614379882812 37.803165435791016 14.702720642089844
-57.31794357299805 28.492511749267578 2.938121870160103
17.51825714111328 43.860687255859375 11.131448745727539
-5.447145462036133 44.79253005981445 4.311142206192017
16.510711669921875 42.201820373535156 18.50059223175049
-35.073713302612305 39.24216842651367 1.6587028503417969
13.557029724121094 23.44698715209961 0.5565073490142822
15.130348205566406 37.42747116088867 12.88595199584961
15.21860122680664 44.78516387939453 11.042231559753418
-4.104040145874023 44.419647216796875 8.933897972106934
-7.280666351318359 49.42868423461914 7.854333877563477
-57.47394561767578 31.39803695678711 2.909070409834385
-6.945085525512695 47.03615188598633 8.580829620361328
-37.46345520019531 37.730491638183594 1.4955050945281982
13.555923461914062 37.41011428833008 10.304529666900635
-5.46893310546875 44.24483871459961 13.163187026977539
-32.880571365356445 40.846614837646484 4.049757122993469
11.65673828125 47.042171478271484 12.248678207397461
-41.27889060974121 9.21252727508545 1.0781244039535522
16.580917358398438 40.352569580078125 7.224637031555176
-0.6695976257324219 45.78902816772461 8.122514247894287
-51.256309509277344 17.963138580322266 3.8966206908226013
19.286968231201172 42.34381103515625 8.975572109222412
14.760074615478516 40.99509048461914 15.730286598205566
-1.1863422393798828 45.606651306152344 8.099688053131104
13.297996520996094 44.24681091308594 13.88827133178711
-3.803619384765625 45.19211196899414 15.64857006072998
13.310626983642578 37.41472625732422 16.05846881866455
10.957752227783203 37.8092041015625 10.2901930809021
13.702568054199219 36.023895263671875 7.669281482696533
13.75943374633789 43.40156173706055 14.264302253723145
15.16329574584961 45.05067443847656 10.43528699874878
-55.10052299499512 33.811588287353516 4.105327486991882
14.744232177734375 44.63465118408203 11.506860733032227
24.742523193359375 -31.19701385498047 1.067816972732544
-39.68635082244873 9.437089920043945 0.5323851108551025
-7.003694534301758 47.440093994140625 9.904865741729736
-3.871419906616211 50.65675354003906 11.464239120483398
13.716445922851562 43.63999938964844 14.496342658996582
12.77798080444336 40.39192581176758 10.904119968414307
-4.854927062988281 52.00447082519531 9.494825839996338
-34.98407459259033 37.60535430908203 4.444192409515381
-5.731121063232422 53.332088470458984 5.240503311157227
-33.213587284088135 41.41331481933594 3.472172051668167
13.32427978515625 44.966041564941406 10.870532989501953
-5.913211822509766 45.22344970703125 4.898393154144287
13.790481567382812 44.56268310546875 7.182051658630371
-5.9980621337890625 48.973087310791016 10.452974796295166
-35.686567306518555 40.637447357177734 3.094025544822216
-0.394927978515625 47.6047477722168 13.133817672729492
-15.86401653289795 -42.41123580932617 0.9736731052398682
-37.54663372039795 37.35708236694336 7.506702423095703
11.931838989257812 40.942569732666016 12.294228553771973
-5.133127212524414 45.49256134033203 6.959323167800903
16.138442993164062 44.688785552978516 9.727907180786133
14.137596130371094 40.01057434082031 11.518514633178711
17.382183074951172 40.00518035888672 10.289711952209473
13.821853637695312 45.71041488647461 13.058051109313965
17.33298110961914 46.52965545654297 15.106040000915527
-3.9930992126464844 45.565547943115234 9.198545455932617
-6.056743621826172 44.394718170166016 15.516921997070312
13.45541763305664 39.75515365600586 14.461974143981934
-39.29950714111328 35.68598937988281 5.426642894744873
13.380104064941406 39.99278259277344 14.15623664855957
-55.0499324798584 33.79161071777344 3.698167085647583
-6.026050567626953 48.22840118408203 9.526885986328125
-5.439353942871094 48.96306610107422 7.887041091918945
14.998298645019531 39.62189865112305 16.079484939575195
-3.9919300079345703 52.14390182495117 10.514922618865967
0.8187160491943359 44.247291564941406 6.293920516967773
13.255672454833984 37.92503356933594 10.181697845458984
-15.646821975708008 -41.43050003051758 1.083342432975769
-4.694488525390625 43.43628692626953 8.926753044128418
-3.2862682342529297 41.79322052001953 14.30447006225586
13.115798950195312 38.0238151550293 10.23358964920044
13.54183578491211 41.22425842285156 8.442445755004883
-1.2878742218017578 51.52351379394531 6.345256328582764
12.864933013916016 46.43477249145508 15.749045372009277
-45.654253005981445 34.791221618652344 7.888855934143066
-5.672941207885742 44.29697036743164 15.490352630615234
-38.872294425964355 10.552942276000977 0.5534710884094238
15.77926254272461 42.57398986816406 4.886129140853882
-6.171070098876953 46.41495895385742 7.17680025100708
16.754531860351562 41.163028717041016 12.001829147338867
-6.355472564697266 47.80494689941406 10.603591918945312
18.324996948242188 -32.75045585632324 0.9414548873901367
13.530586242675781 42.80297088623047 18.28079605102539
44.93544006347656 -26.612651824951172 1.0928958654403687
-5.984188079833984 49.059078216552734 11.309613227844238
-0.04132270812988281 48.24075698852539 10.292964935302734
-16.284049034118652 -42.195350646972656 1.088564157485962
-1.5690345764160156 41.17150115966797 10.620849132537842
13.56304931640625 -34.10397720336914 0.8738360404968262
-33.548930168151855 37.76560974121094 2.6328237056732178
15.138160705566406 36.064151763916016 11.802905082702637
-6.097648620605469 44.61079406738281 11.720919609069824
0.14832305908203125 20.002286911010742 1.1095560789108276
17.002483367919922 39.2528076171875 6.3149237632751465
-4.941703796386719 51.68208312988281 7.137618064880371
-0.5135536193847656 42.515480041503906 6.43879246711731
17.565322875976562 43.57254409790039 13.707265853881836
14.744247436523438 41.680274963378906 13.383328437805176
-1.0312271118164062 43.63154602050781 11.430032730102539
-33.333937644958496 38.876800537109375 6.4195661544799805
15.96929931640625 37.17030334472656 10.840705394744873
16.986690521240234 44.195831298828125 15.078267097473145
19.10916519165039 38.675559997558594 8.269786834716797
17.198802947998047 43.21380615234375 15.021857261657715
-2.3941726684570312 44.89444351196289 10.036176681518555
-5.824506759643555 44.219398498535156 13.318219184875488
12.3289794921875 46.45178985595703 15.354560852050781
14.807941436767578 43.32307434082031 6.525176286697388
-6.344831466674805 49.616207122802734 7.085360527038574
-5.194955825805664 51.6351318359375 9.487431526184082
-5.657279968261719 17.985191345214844 1.2458350658416748
13.177906036376953 45.44292068481445 10.53090238571167
14.37896728515625 42.203956604003906 18.153464317321777
-2.657848358154297 46.61922073364258 15.509194374084473
-43.61959648132324 35.62073516845703 2.9109700471162796
0.08616828918457031 49.287803649902344 13.459802627563477
-58.8731632232666 30.36309242248535 1.9496508836746216
-0.6388015747070312 46.247901916503906 11.734498977661133
16.098289489746094 43.07771682739258 12.313650131225586
-5.99030876159668 43.571136474609375 11.621099472045898
-43.89101600646973 37.21284103393555 1.7206019163131714
13.545024871826172 38.166133880615234 16.060614585876465
-39.703370094299316 35.65180206298828 4.025144934654236
-41.829562187194824 39.57990264892578 2.9190175384283066
15.410701751708984 39.21748352050781 11.096221923828125
0.14629364013671875 44.822776794433594 11.89905834197998
-46.750247955322266 36.14506530761719 9.483834266662598
-2.4778499603271484 43.15140914916992 7.907216548919678
-51.77397918701172 17.34221076965332 3.1980863511562347
14.065956115722656 41.65660095214844 10.621052742004395
11.52225112915039 38.589256286621094 11.103023529052734
15.274894714355469 40.218135833740234 9.705687046051025
-42.192442893981934 -48.59038543701172 0.734389066696167
-35.05889415740967 37.63835906982422 3.6936155557632446
-32.91649007797241 41.018096923828125 5.683845043182373
13.953060150146484 41.41140365600586 14.917798042297363
0.32195091247558594 41.39081954956055 5.90086555480957
-41.32432746887207 -50.4411506652832 0.7005712985992432
18.51498794555664 45.831485748291016 7.270987033843994
-25.071139574050903 13.93132209777832 0.5187356472015381
-57.81480598449707 26.39992904663086 2.343936324119568
15.569412231445312 46.575931549072266 12.30814266204834
-33.40641784667969 40.63651657104492 8.01369571685791
-2.8066329956054688 44.441226959228516 14.16818618774414
-5.446495056152344 44.6251106262207 8.489573001861572
-21.66056489944458 13.999471664428711 1.0750597715377808
-2.6740341186523438 46.01710510253906 14.90335464477539
2.00885009765625 44.77723693847656 8.156696796417236
-58.25003433227539 34.37691116333008 5.719684839248657
-52.679006576538086 34.972110748291016 9.125547409057617
15.397010803222656 39.573307037353516 8.092996597290039
-41.4734468460083 -49.58601379394531 2.716732919216156
14.94671630859375 40.82872772216797 17.52326774597168
-44.46496391296387 36.657318115234375 3.3146071434020996
-40.82958793640137 -50.602325439453125 2.1116592288017273
1.2062644958496094 46.0254020690918 12.982754707336426
11.119949340820312 37.76298141479492 9.309716701507568
12.401081085205078 39.9962158203125 14.042354583740234
15.531673431396484 -33.58975601196289 1.0789556503295898
-36.2592134475708 10.400627136230469 1.0851871967315674
-39.7546272277832 -49.88998794555664 1.5908480882644653
-42.83612060546875 36.003639221191406 3.111567087471485
-28.657103419303894 -44.80080032348633 0.5674097537994385
15.523181915283203 42.58129119873047 7.888358116149902
-5.463134765625 51.72771453857422 9.341090202331543
-1.4099597930908203 18.891277313232422 1.0043843984603882
-35.07921600341797 -46.606258392333984 0.6592745780944824
-44.257442474365234 36.7854118347168 3.3073261976242065
12.881023406982422 39.210540771484375 13.924188613891602
-2.232309341430664 45.487491607666016 13.408371925354004
14.15268325805664 45.42328643798828 12.289936065673828
-47.471473693847656 36.179534912109375 7.50692081451416
12.577423095703125 45.619903564453125 10.508625030517578
-39.902039527893066 38.8305778503418 5.843195199966431
9.539520263671875 39.19474792480469 8.570009708404541
-53.51579666137695 14.932235717773438 4.20692503452301
16.888843536376953 36.81912612915039 11.346089363098145
16.543846130371094 37.006065368652344 8.287092208862305
17.31835174560547 48.18796920776367 13.348921775817871
13.340633392333984 40.817237854003906 12.700148582458496
16.554794311523438 41.83038330078125 6.94857931137085
-6.849224090576172 46.22361373901367 7.739286422729492
14.402584075927734 44.33646774291992 14.016057014465332
14.925918579101562 37.18379592895508 13.782258987426758
14.105819702148438 42.37467575073242 9.494098663330078
15.764469146728516 36.574378967285156 10.981338024139404
-50.67303276062012 35.70170211791992 4.625903964042664
14.296607971191406 37.4073486328125 7.920458793640137
20.17029571533203 46.281654357910156 8.032514572143555
13.138004302978516 37.78350830078125 9.440318584442139
14.617073059082031 42.2421875 8.251962661743164
13.757556915283203 41.40784454345703 12.300375938415527
-58.84904861450195 30.278697967529297 2.031293213367462
15.096508026123047 43.7896842956543 8.29131031036377
-0.08931922912597656 50.73918914794922 10.919471740722656
-7.485040664672852 46.817291259765625 7.317773818969727
-5.652559280395508 48.38772964477539 11.311605453491211
17.299121856689453 39.026161193847656 7.017772674560547
14.05331039428711 44.82918930053711 9.180295944213867
16.0806884765625 35.35472106933594 7.926022052764893
40.34972381591797 -27.22971534729004 1.086204171180725
12.924888610839844 35.99688720703125 8.072409629821777
15.47623062133789 43.98275375366211 1.1167124509811401
-35.7135009765625 39.866981506347656 9.697638034820557
-1.882110595703125 44.536495208740234 12.249415397644043
-42.659146308898926 37.18019104003906 2.2917098999023438
16.14472198486328 41.79524612426758 6.530550718307495
-17.389009475708008 15.240846633911133 0.5334188938140869
-33.86329889297485 39.235260009765625 6.900637149810791
13.14065170288086 42.61089324951172 7.694655895233154
-55.07892036437988 33.79052734375 6.2961976528167725
-1.9223213195800781 51.54703140258789 7.186863899230957
-59.24974822998047 33.174339294433594 8.109015464782715
11.094718933105469 22.169763565063477 1.2267929315567017
-47.40900421142578 35.86689376831055 7.438819885253906
2.409006118774414 44.26441192626953 5.4119672775268555
-44.283103942871094 36.22900390625 1.4855204820632935
-3.748798370361328 43.31741714477539 11.172564506530762
2.1248435974121094 44.62604904174805 7.891117095947266
-0.05202484130859375 19.980670928955078 0.5395829677581787
-16.85496425628662 -42.244380950927734 1.1833148002624512
1.9191398620605469 43.935577392578125 7.886526584625244
-2.878580093383789 43.770591735839844 10.300114631652832
-1.055807113647461 41.84046173095703 10.549790382385254
-37.665687561035156 37.83441162109375 6.5647382736206055
-6.8512725830078125 47.38010025024414 5.2982964515686035
34.97532653808594 -28.46066665649414 0.9585475921630859
10.255149841308594 38.38421630859375 10.896826267242432
0.9038314819335938 43.802398681640625 7.916150093078613
0.9927406311035156 41.788002014160156 5.143805265426636
-4.674055099487305 44.804168701171875 6.306487083435059
12.514732360839844 45.60555648803711 15.718202590942383
-50.33685111999512 17.92731475830078 5.3956310749053955
-4.8154754638671875 44.488094329833984 13.935508728027344
12.360809326171875 43.54109191894531 6.764782905578613
-37.4502477645874 39.37619400024414 10.05038595199585
-5.30644416809082 45.214256286621094 9.255058288574219
-44.607839584350586 36.60789108276367 2.947622884064913
12.74471664428711 38.620418548583984 14.333830833435059
2.619382858276367 43.337493896484375 6.668609142303467
-5.039863586425781 50.82549285888672 6.705585479736328
13.780952453613281 37.026363372802734 8.086530208587646
15.487693786621094 43.79124069213867 3.0881826505064964
-6.259366989135742 46.99457931518555 10.89337968826294
-0.07039642333984375 44.19526672363281 12.493996620178223
16.707435607910156 40.40935516357422 16.28503704071045
-45.11598014831543 34.532989501953125 8.052801132202148
-25.247081637382507 -44.17348861694336 1.1698373556137085
-38.27384281158447 38.59995651245117 2.74000945687294
-5.823923110961914 43.21213912963867 5.731453895568848
-2.081157684326172 42.214324951171875 7.274372100830078
-6.653461456298828 46.214141845703125 8.303449630737305
14.885986328125 38.2110595703125 13.778013229370117
14.35711669921875 39.579864501953125 12.08980655670166
-50.59124946594238 35.4552116394043 4.527618646621704
12.71514892578125 22.983150482177734 1.2041090726852417
-47.191402435302734 35.22467041015625 2.91270399838686
-1.66363525390625 41.98439407348633 5.894040584564209
13.856143951416016 43.3538818359375 14.320812225341797
-58.18146324157715 30.48819351196289 2.927541211247444
-4.212739944458008 45.258907318115234 13.512114524841309
-7.451108932495117 50.028438568115234 7.927140235900879
-57.50102424621582 34.73055648803711 1.7334880828857422
15.911895751953125 45.34675216674805 13.472698211669922
35.31111526489258 -29.12021827697754 0.5012083053588867
-2.83087158203125 48.78731918334961 10.274869918823242
17.201499938964844 37.22651290893555 10.968591213226318
