5.309496 -4.268878 2.923335 
5.345435 -4.343162 3.698849 
5.102940 -4.644131 3.869405 
3.925302 -6.215441 1.074773 
2.463695 -1.924755 1.475893 
3.616962 -0.871785 1.368550 
6.725991 -2.237387 1.978896 
2.524015 -3.052830 1.093527 
5.459336 -4.053028 3.123110 
4.162529 -5.912689 1.406630 
3.906633 -0.299851 1.526776 
7.405445 -1.242570 1.070795 
4.983218 -4.715865 2.513746 
3.870974 -0.581491 1.366913 
7.809707 -0.601041 0.463031 
5.755036 -3.796477 0.913362 
6.169191 -3.037037 2.722087 
3.919674 -1.403447 1.105032 
2.783156 -2.672097 1.123742 
3.879718 -0.920836 0.268529 
4.729812 -5.082469 2.129745 
4.355724 -2.337607 0.429551 
5.184184 -1.792015 0.379118 
3.304770 -2.722470 0.807379 
4.215332 -1.809749 0.822576 
1.734407 -2.917500 1.489824 
1.924003 -2.990116 1.310261 
3.631956 -3.254262 0.533110 
3.674747 -6.606348 0.767688 
5.746435 -3.679800 4.494511 
3.975359 -2.641375 0.613998 
5.607783 -3.857261 1.953575 
5.541158 -3.794531 1.569673 
7.047127 -1.780951 1.544292 
4.535252 -2.039405 0.475147 
3.910834 -3.262942 0.372254 
4.298375 -5.692797 1.561671 
5.570615 -3.834510 2.197548 
7.593557 -0.926319 0.748793 
7.272663 -1.437566 1.249206 
5.746090 -3.679349 1.638164 
2.692392 -1.969127 1.359160 
3.071769 -1.217661 1.494396 
3.084519 -7.417308 -0.036294 
5.688429 -3.857332 4.689007 
5.760725 -3.782743 2.373683 
3.063535 -2.702843 0.920265 
5.543959 -3.801292 0.791211 
5.033444 -1.485300 0.517864 
4.729363 -1.108879 0.792738 
5.698479 -3.638897 5.582735 
2.911468 -1.711032 1.360662 
5.493917 -4.123280 3.572747 
5.395173 -1.537342 0.377227 
5.572316 -3.836016 5.455902 
5.660203 -3.628427 1.073013 
5.573093 -3.836418 4.918151 
3.890116 -0.842176 0.884257 
5.690267 -3.855993 0.510963 
4.191713 -1.536588 0.935882 
3.722970 -2.633955 0.727159 
3.605450 -1.620554 1.091307 
3.861940 -2.419273 0.747324 
5.532480 -3.767298 2.814147 
4.459697 -5.430262 1.797918 
5.864411 -3.468867 3.097812 
5.651607 -3.864193 1.274981 
4.646388 -0.897261 0.908799 
2.777880 -3.001641 1.001814 
2.704283 -3.464626 0.790175 
5.633352 -3.628880 4.275982 
3.844850 -2.840222 0.484769 
5.669738 -3.861951 4.182689 
3.885568 -0.847452 0.611805 
2.677694 -1.695204 1.468853 
2.508205 -3.479962 0.939416 
2.620904 -3.263330 0.971803 
4.770734 -1.928319 0.535010 
6.899941 -1.939320 1.729386 
3.008668 -4.027079 0.446751 
4.529861 -1.110330 0.948711 
3.969478 -1.640146 0.924739 
2.539032 -2.305730 1.368608 
2.291090 -2.196403 1.518243 
3.955914 -1.157954 1.112451 
2.964036 -3.504677 0.730774 
4.860966 -4.868002 2.367071 
6.443214 -2.578464 2.284502 
1.912471 -2.619516 1.524297 
2.973352 -1.905604 1.227245 
3.403046 -3.823195 0.349444 
6.060925 -3.326046 3.653367 
3.526690 -1.853828 1.107088 
5.619859 -3.630507 3.097032 
5.468270 -3.872339 3.600119 
7.942370 -0.422874 0.282683 
2.878087 -3.295084 0.847372 
3.406361 -1.024289 1.472431 
3.657700 -2.300383 0.812171 
4.133140 -2.433199 0.554201 
3.822449 -1.039531 1.284738 
6.594680 -2.414637 2.116364 
5.734860 -3.826013 -0.248009 
3.567003 -6.747567 0.589699 
2.220076 -3.347215 1.109821 
2.275758 -2.714716 0.027809 
2.217087 -3.114504 1.204490 
4.409336 -1.623787 0.807847 
3.598126 -0.604330 1.491236 
5.675601 -3.861105 3.025765 
3.306213 -1.974701 1.088648 
3.363394 -3.194221 0.603899 
3.515853 -2.091805 1.022112 
5.110893 -4.419589 3.738576 
6.197151 -3.111976 3.714261 
5.558654 -3.669258 0.401005 
2.155652 -2.618197 1.349174 
4.483772 -1.337624 0.813896 
4.645314 -1.756225 0.654731 
5.547137 -3.807220 4.424377 
5.910920 -3.524217 3.616261 
3.456539 -3.393445 0.429551 
5.004233 -1.204913 0.636339 
5.747817 -3.810149 0.246876 
3.190643 -1.775341 1.283623 
3.617259 -2.966884 0.647875 
8.326286 0.142941 -0.220761 
2.319563 -2.817053 0.571592 
4.267198 -1.013192 1.100188 
3.929492 -0.831715 1.139023 
3.575134 -1.207581 1.189522 
5.167453 -4.435699 2.769159 
3.911957 -0.849665 0.026680 
5.583768 -3.646879 3.462359 
3.968989 -1.909733 0.823322 
3.728666 -1.797569 0.970694 
5.000424 -1.949600 0.426549 
5.765987 -3.759633 5.279484 
5.712509 -3.646326 2.074057 
3.096886 -2.141435 1.186607 
4.193367 -1.237419 0.978660 
5.709046 -3.847821 2.656021 
4.738567 -1.427964 0.668422 
4.433709 -1.867336 0.705374 
3.193023 -3.817785 0.512604 
4.475165 -0.767680 1.101804 
3.292351 -3.431130 0.614935 
3.262874 -2.970875 0.732053 
2.279716 -2.710126 0.861823 
3.025172 -2.980840 0.901521 
4.191546 -2.951226 0.402653 
3.312458 -2.230695 1.058692 
3.489726 -2.482059 0.817133 
3.099166 -1.513351 1.422390 
4.859866 -1.684544 0.029693 
2.841463 -1.506213 1.518615 
2.214987 -2.869800 1.228377 
4.206656 -0.512695 1.163620 
3.247574 -2.484192 0.991499 
2.569066 -2.778400 1.177284 
3.359225 -1.611168 1.174857 
3.214751 -3.644810 0.029693 
4.180230 -2.019910 0.689415 
3.268540 -1.306146 1.357159 
2.314059 -2.738239 0.268907 
5.564225 -3.661997 2.581933 
4.085503 -0.408246 1.368437 
6.318453 -2.825950 2.519900 
5.559832 -3.824636 3.847980 
4.670934 -2.359745 0.416009 
2.506948 -2.523613 1.260516 
2.833342 -2.115924 1.160516 
5.999132 -3.213691 2.876892 
4.238366 -2.676342 0.416526 
7.508532 -1.075241 0.923695 
3.278429 -3.569638 0.270097 
4.462366 -2.581985 0.354147 
4.857631 -2.150109 0.413400 
3.213228 -7.273191 0.151175 
4.365510 -2.177288 0.618348 
5.754810 -3.693130 3.737387 
5.530522 -3.733841 -0.135775 
3.333928 -7.080782 0.281325 
2.110725 -2.397364 1.521353 
2.955318 -3.808679 0.619981 
5.591258 -3.853868 3.309697 
3.001749 -2.406013 1.059184 
5.601960 -3.636607 5.093558 
3.842960 -2.139393 0.791852 
4.081239 -2.240982 0.718642 
3.821005 -6.413479 0.930735 
6.187624 -2.869616 3.754187 
5.767097 -3.751301 -0.016403 
6.293663 -2.803552 3.977251 
8.106647 -0.225007 0.130088 
4.844679 -1.689896 0.429551 
5.535002 -3.710921 0.111544 
2.714882 -3.717121 0.759635 
5.620445 -3.630579 4.772599 
5.699290 -3.638844 4.038093 
5.645380 -3.627297 1.344621 
4.560679 -5.268975 1.951804 
3.715069 -3.481052 0.411269 
2.905434 -7.724914 -0.289899 
2.295882 -2.418151 1.363269 
8.220400 -0.038705 -0.084101 
4.119800 -0.728955 1.258908 
3.116982 -3.252382 0.759006 
2.762604 -2.425508 1.156408 
