5.553 -3.794 -0.114
5.562 -3.799 -0.012
5.553 -3.666 -0.120
5.581 -3.667 -0.016
5.652 -3.789 -0.100
5.656 -3.735 -0.013
5.653 -3.686 -0.118
3.818 -6.302 1.014
3.860 -6.187 1.059
5.631 -3.823 0.080
5.564 -3.748 0.076
5.564 -3.805 0.165
5.573 -3.794 0.265
5.585 -3.673 0.145
5.589 -3.679 0.265
5.577 -3.809 0.367
5.616 -3.819 0.460
5.589 -3.804 0.556
5.590 -3.679 0.366
5.607 -3.703 0.464
5.605 -3.700 0.565
5.604 -3.830 0.653
5.614 -3.820 0.754
5.621 -3.690 0.670
5.612 -3.710 0.786
5.616 -3.828 0.859
5.614 -3.828 0.960
5.627 -3.832 1.062
5.620 -3.719 0.886
5.635 -3.708 0.990
5.637 -3.711 1.091
5.664 -3.695 0.082
5.659 -3.761 0.158
5.683 -3.731 0.256
5.692 -3.768 0.369
5.704 -3.770 0.490
5.687 -3.810 0.594
5.718 -3.710 0.593
5.705 -3.741 0.691
5.721 -3.781 0.783
5.729 -3.801 0.895
5.730 -3.738 0.974
5.726 -3.816 1.066
5.738 -3.722 1.103
7.543 -1.060 0.845
7.580 -0.988 0.786
7.382 -1.307 1.088
7.421 -1.236 1.027
7.489 -1.138 0.929
7.661 -0.857 0.659
7.746 -0.737 0.533
3.901 -6.094 1.110
3.992 -6.047 1.228
4.034 -5.958 1.277
4.096 -5.913 1.358
4.146 -5.846 1.422
4.217 -5.778 1.509
4.272 -5.728 1.576
4.323 -5.645 1.639
4.382 -5.591 1.717
4.421 -5.510 1.762
4.482 -5.480 1.839
4.546 -5.388 1.918
4.714 -5.188 2.139
5.484 -4.235 3.145
5.529 -4.258 3.663
5.625 -4.123 3.603
5.640 -4.018 3.628
5.052 -4.532 3.917
5.321 -4.547 3.794
5.218 -4.690 3.857
5.297 -4.626 3.881
5.148 -4.599 3.898
5.391 -4.458 3.761
5.354 -4.469 3.857
5.440 -4.376 3.726
5.446 -4.286 3.772
5.567 -4.127 3.689
5.707 -4.010 3.554
5.627 -3.825 1.168
5.635 -3.830 1.275
5.640 -3.714 1.232
5.644 -3.858 1.487
5.643 -3.829 1.377
5.646 -3.829 1.588
5.642 -3.825 1.717
5.738 -3.799 1.190
5.732 -3.794 1.299
5.655 -3.737 1.333
5.738 -3.822 1.418
5.667 -3.751 1.440
5.784 -3.750 1.481
5.737 -3.833 1.533
5.765 -3.743 1.582
5.750 -3.727 1.380
5.693 -3.678 1.513
5.711 -3.875 1.657
5.692 -3.758 1.650
5.771 -3.808 1.714
5.743 -3.869 1.820
5.772 -3.734 1.788
5.660 -3.809 1.819
5.672 -3.719 1.740
5.695 -3.721 1.857
5.664 -3.857 1.920
5.762 -3.858 1.973
5.776 -3.741 1.924
5.752 -3.859 2.093
5.663 -3.820 2.019
5.712 -3.744 2.092
5.799 -3.759 2.020
5.695 -3.723 1.982
6.728 -2.237 2.004
5.774 -3.857 2.213
5.679 -3.837 2.189
5.706 -3.736 2.217
5.815 -3.778 2.138
5.769 -3.866 2.363
5.702 -3.813 2.293
5.811 -3.775 2.266
5.787 -3.745 2.359
5.798 -3.863 2.480
5.731 -3.729 2.443
5.823 -3.745 2.480
5.793 -3.870 2.602
5.707 -3.829 2.564
5.763 -3.745 2.569
5.853 -3.783 2.608
5.717 -3.860 2.672
5.752 -3.729 2.674
5.715 -3.810 2.767
5.800 -3.863 2.848
5.829 -3.752 2.878
5.764 -3.707 2.816
5.716 -3.817 2.905
5.729 -3.828 3.012
5.761 -3.740 2.971
5.851 -3.765 3.027
5.782 -3.731 3.146
5.884 -3.785 3.125
6.026 -3.449 3.103
6.204 -3.187 2.869
6.345 -2.859 2.555
6.335 -2.936 2.674
7.117 -1.712 1.489
7.104 -1.810 1.535
7.144 -1.588 1.374
7.297 -1.474 1.232
7.232 -1.509 1.308
7.328 -1.391 1.171
7.035 -1.911 1.640
5.822 -3.876 3.220
5.827 -3.768 3.251
5.760 -3.866 3.314
5.821 -3.895 3.409
5.863 -3.811 3.342
5.787 -3.737 3.338
5.776 -3.924 3.506
5.758 -3.831 3.455
5.807 -3.733 3.450
5.846 -3.763 3.538
5.801 -3.866 3.611
5.858 -3.793 3.655
5.889 -3.679 3.577
5.975 -3.619 3.562
6.026 -3.537 3.602
6.101 -3.477 3.649
6.151 -3.391 3.666
5.808 -3.874 3.728
5.867 -3.797 3.764
5.788 -3.857 3.835
5.843 -3.884 3.918
5.837 -3.775 3.873
5.812 -3.857 4.017
5.834 -3.768 3.973
5.787 -3.870 4.128
5.882 -3.813 4.079
5.828 -3.792 4.179
6.159 -3.299 3.733
6.251 -3.257 3.721
6.248 -3.168 3.771
6.366 -3.071 3.788
6.382 -2.979 3.833
6.285 -2.852 3.868
5.851 -3.878 4.239
5.887 -3.801 4.292
5.799 -3.866 4.329
5.817 -3.875 4.431
5.866 -3.796 4.392
5.808 -3.872 4.533
5.844 -3.781 4.496
5.803 -3.871 4.643
5.891 -3.797 4.591
5.864 -3.781 4.690
5.880 -3.870 4.746
5.834 -3.797 4.802
5.830 -3.875 4.941
5.894 -3.796 4.899
5.812 -3.868 5.050
5.889 -3.817 5.004
5.827 -3.880 5.164
5.884 -3.813 5.116
5.843 -3.807 5.239
5.896 -3.789 5.322
5.829 -3.876 5.337
5.822 -3.879 5.455
5.891 -3.809 5.430
5.832 -3.873 5.559
5.736 -3.756 5.548
5.891 -3.794 5.532
5.548 -3.791 -0.251
5.557 -3.673 -0.246
5.667 -3.742 -0.247
