-7.2630391120910645 4.037688255310059 7.413331508636475
-8.564738273620605 3.9637949466705322 7.021976470947266
-6.481247901916504 3.786726236343384 7.64837646484375
-8.32863712310791 3.774689197540283 7.140616416931152
4.988990306854248 3.7427353858947754 8.019927978515625
-4.412493705749512 4.168675899505615 7.995428562164307
5.370619773864746 3.788740873336792 8.295692443847656
-1.8006556034088135 4.087452411651611 8.29469108581543
3.3482859134674072 4.087451457977295 8.33981990814209
-0.04042350500822067 4.087451934814453 8.338826179504395
-5.383333683013916 4.0874528884887695 8.109736442565918
5.676807403564453 3.795858383178711 8.387080192565918
7.033150672912598 4.102573871612549 7.530104637145996
6.811522006988525 3.7281334400177 7.596736907958984
-7.04226016998291 3.7887425422668457 7.6847429275512695
-6.402137756347656 -4.61215353012085 8.169011116027832
-7.4252214431762695 -4.620969295501709 7.412229061126709
-9.47069263458252 -4.623838901519775 6.9466705322265625
-6.4201765060424805 -4.59495735168457 8.115931510925293
-7.718003273010254 -5.003776550292969 7.282889366149902
-8.03360652923584 -4.879469394683838 7.1816630363464355
-8.714372634887695 -4.922554016113281 7.246121883392334
-7.3186187744140625 -4.922554016113281 7.815517902374268
0.5487512946128845 -4.573187351226807 8.388179779052734
-2.079751491546631 -4.942142486572266 8.431884765625
-2.8917276859283447 -4.945650577545166 8.431884765625
-4.907385349273682 -4.9622416496276855 8.019928932189941
-0.8738670349121094 -5.003777503967285 8.409981727600098
0.2671372890472412 -5.003777503967285 8.00971794128418
-1.7548102140426636 -4.579463958740234 8.019928932189941
-4.1105265617370605 -4.9225544929504395 8.240619659423828
-5.060840129852295 -4.922554016113281 8.251636505126953
-3.0948283672332764 -4.9225544929504395 8.025228500366211
-4.611617088317871 -4.92642879486084 8.388178825378418
2.565629720687866 -4.778076171875 7.976223468780518
-2.388418674468994 -4.874827861785889 7.976223468780518
0.6443296074867249 -4.580991268157959 7.976223468780518
2.201491594314575 -4.554363250732422 7.976223468780518
2.3295135498046875 -4.562641143798828 7.976223468780518
-1.8838270902633667 -4.623840808868408 8.363808631896973
-2.926353693008423 -4.62384033203125 8.243537902832031
-1.3446440696716309 -4.623840808868408 8.23779296875
7.773678302764893 -4.546085834503174 7.756659507751465
7.477161884307861 -4.61722469329834 7.3271803855896
9.235928535461426 -4.623844146728516 6.7572550773620605
8.611769676208496 -4.623844146728516 7.442104339599609
6.040651321411133 -4.801825523376465 8.277692794799805
8.139662742614746 -4.941319465637207 7.1058125495910645
9.120245933532715 -4.9225568771362305 6.813412189483643
7.527012825012207 -4.922556400299072 7.582108497619629
-3.3858985900878906 -4.70155143737793 8.431884765625
-4.643613815307617 -4.600438594818115 8.431884765625
-7.704451084136963 -13.31653881072998 7.7774739265441895
-7.212851047515869 -13.253912925720215 7.450785160064697
-5.636900901794434 -13.346880912780762 7.902231216430664
-7.023164749145508 -13.335135459899902 7.699214458465576
-8.304580688476562 -13.335135459899902 7.498929023742676
-6.08585262298584 -13.584345817565918 8.264103889465332
-5.548633575439453 -13.613038063049316 7.928768634796143
-6.77554178237915 -13.646903991699219 7.6075568199157715
-6.0339837074279785 -13.633849143981934 8.149497985839844
1.3508102893829346 -13.27638053894043 8.388181686401367
-4.118395805358887 -13.6900053024292 8.431886672973633
-2.544779062271118 -13.599879264831543 8.431886672973633
-0.2279042899608612 -13.642845153808594 8.431886672973633
-2.4039297103881836 -13.715071678161621 8.419153213500977
-1.7838867902755737 -13.715071678161621 8.007952690124512
3.673736095428467 -13.32378101348877 8.01993179321289
-2.107365846633911 -13.633849143981934 8.248336791992188
3.477750539779663 -13.633849143981934 8.060739517211914
4.392117500305176 -13.633849143981934 8.031780242919922
-4.9806108474731445 -13.69993782043457 8.38818073272705
-5.161837100982666 -13.661415100097656 7.976224899291992
-1.1806915998458862 -13.609970092773438 7.97622537612915
2.383280038833618 -13.527480125427246 7.97622537612915
-2.985600233078003 -13.404865264892578 7.976224899291992
-2.547698736190796 -13.323969841003418 7.97622537612915
-0.7386612892150879 -13.335135459899902 8.343729972839355
1.3735588788986206 -13.335135459899902 8.374019622802734
-4.416398525238037 -13.335135459899902 8.15269660949707
6.4826507568359375 -13.432762145996094 8.144807815551758
6.961927890777588 -13.253912925720215 7.521191596984863
8.11902141571045 -13.253912925720215 7.61939811706543
6.703209400177002 -13.335135459899902 7.69880485534668
7.256649494171143 -13.335135459899902 7.621481895446777
5.561534404754639 -13.581063270568848 8.421740531921387
5.776201248168945 -13.547208786010742 7.860352516174316
8.331521987915039 -13.633849143981934 7.427286624908447
5.881839752197266 -13.633849143981934 8.000290870666504
-3.1168975830078125 -13.353546142578125 8.431886672973633
-4.594064712524414 -13.404753684997559 8.431886672973633
-4.698491096496582 -13.334334373474121 8.431886672973633
-6.7909698486328125 -22.07605743408203 8.05211353302002
-9.108795166015625 -22.164636611938477 6.858412742614746
-7.0292134284973145 -22.046430587768555 7.770515441894531
-5.862528324127197 -22.046430587768555 8.226090431213379
-6.459237575531006 -22.425819396972656 8.151848793029785
-7.193627834320068 -22.27228355407715 7.434206008911133
-9.651235580444336 -22.359302520751953 6.742985725402832
-5.902413368225098 -22.345144271850586 8.197809219360352
-5.898414134979248 -22.392921447753906 8.272802352905273
1.8385019302368164 -22.385467529296875 8.431890487670898
-1.009624719619751 -22.372455596923828 8.431890487670898
2.2236948013305664 -22.40311622619629 8.431890487670898
-2.64469313621521 -22.426366806030273 8.425643920898438
-4.683780670166016 -22.426366806030273 7.984145641326904
-2.5930824279785156 -21.99473762512207 8.019933700561523
-1.5600836277008057 -22.345144271850586 8.078778266906738
-1.28755784034729 -22.345144271850586 8.119638442993164
-4.676064968109131 -22.345144271850586 8.030644416809082
-4.344289779663086 -22.345144271850586 8.237753868103027
-0.12152848392724991 -22.19658851623535 7.9762282371521
-4.350305080413818 -22.21950340270996 7.976227760314941
-2.313889265060425 -22.23735809326172 7.9762282371521
-4.380850791931152 -22.161386489868164 7.976227760314941
-5.152943134307861 -22.04424285888672 7.976227283477783
3.5730504989624023 -22.04643440246582 8.346648216247559
4.482819557189941 -22.04643440246582 8.38029956817627
2.157891273498535 -22.046432495117188 8.345720291137695
-3.3861541748046875 -22.046430587768555 8.172541618347168
7.793637275695801 -22.023941040039062 7.7506632804870605
6.857728481292725 -22.156261444091797 7.535195350646973
6.436196327209473 -22.04643440246582 7.737124443054199
9.585615158081055 -22.04643440246582 7.066151142120361
6.207740306854248 -22.34519386291504 8.227461814880371
6.662148952484131 -22.203514099121094 7.593996524810791
9.24884033203125 -22.398466110229492 6.863966464996338
6.819234371185303 -22.345144271850586 7.763973712921143
6.901377201080322 -22.353940963745117 7.971264839172363
-4.496667385101318 -22.045297622680664 8.431890487670898
-4.298060894012451 -22.10186195373535 8.431890487670898
7.988755702972412 19.351200103759766 7.691991806030273
9.206128120422363 19.469682693481445 7.325990200042725
-8.5261812210083 19.61381721496582 7.081221103668213
-6.585607528686523 19.590715408325195 8.032401084899902
-9.001221656799316 19.598054885864258 7.339936256408691
-8.477846145629883 19.292003631591797 7.337696552276611
-8.43001937866211 19.29200553894043 7.222715854644775
-2.621264934539795 19.646785736083984 8.38817310333252
-4.877333164215088 12.494175910949707 6.479071617126465
-4.877333164215088 12.486519813537598 4.488916397094727
-4.877333164215088 12.587383270263672 7.720607280731201
2.4365463256835938 19.222806930541992 8.01992416381836
-5.1935296058654785 19.671937942504883 8.415435791015625
-5.161684513092041 19.671937942504883 7.984649658203125
1.017731785774231 19.292001724243164 8.105079650878906
-0.07472025603055954 19.292003631591797 8.107245445251465
-1.8419352769851685 19.292003631591797 8.110069274902344
-0.600550651550293 19.292003631591797 8.199667930603027
-4.981827259063721 19.226116180419922 8.38817310333252
-2.1384572982788086 19.426105499267578 7.9762187004089355
4.619486331939697 19.425067901611328 7.976219177246094
1.9786711931228638 19.63701057434082 7.9762187004089355
0.20055249333381653 19.645153045654297 7.9762187004089355
2.385347366333008 19.590713500976562 8.336414337158203
2.09251070022583 19.590713500976562 8.357837677001953
-0.907755434513092 19.590715408325195 8.374848365783691
-4.601403713226318 19.590715408325195 8.090533256530762
-0.2228967696428299 19.42803955078125 8.431879043579102
-3.743025302886963 19.317712783813477 8.431879043579102
-2.012840747833252 19.43341636657715 8.431879043579102
-5.4337687492370605 19.3268985748291 8.431879043579102
-1.3392049074172974 19.262004852294922 8.431879043579102
8.187533378601074 19.590713500976562 7.256614685058594
9.262982368469238 19.590713500976562 7.0293073654174805
6.898532390594482 19.210779190063477 7.989758491516113
8.538031578063965 19.292001724243164 7.180932521820068
6.664000034332275 19.287109375 8.042621612548828
-22.752281188964844 -22.378273010253906 7.0945963859558105
-19.232988357543945 -13.391322135925293 6.682638645172119
-24.555681228637695 -13.307732582092285 6.682638168334961
-28.491920471191406 -13.320077896118164 6.682638168334961
-23.00481605529785 -13.368626594543457 6.682638645172119
-27.101293563842773 -22.29306983947754 7.138301849365234
-26.239408493041992 -22.22858428955078 7.138301849365234
-28.35136604309082 -22.39602279663086 7.138301849365234
-21.099275588989258 -22.28594398498535 7.138302326202393
-26.012496948242188 -13.445754051208496 7.138299942016602
-28.15286636352539 -13.34350299835205 7.138299942016602
-28.281492233276367 -13.402115821838379 7.138299942016602
-21.543928146362305 -13.296035766601562 7.13830041885376
-11.712010383605957 -21.965208053588867 7.126707553863525
-18.536657333374023 -13.633849143981934 6.972440719604492
-27.647361755371094 -13.633849143981934 6.781773090362549
-19.099422454833984 -13.633849143981934 7.08903169631958
-18.40980339050293 -13.633849143981934 6.945671081542969
-27.555530548095703 -13.633849143981934 6.922122001647949
-15.352709770202637 -13.633849143981934 7.084721565246582
-25.49469566345215 -22.426366806030273 6.716845989227295
-13.48569393157959 -13.329598426818848 7.094594955444336
-21.450937271118164 -21.987672805786133 6.726346015930176
-22.334211349487305 -21.99356460571289 6.726346015930176
-12.39861011505127 -22.16368293762207 6.68264102935791
-20.617067337036133 -22.12492561340332 6.682640552520752
-21.567331314086914 -22.123424530029297 6.682640552520752
-27.73802947998047 -22.13910675048828 6.682640075683594
-27.24582290649414 -22.015031814575195 7.138301372528076
-23.62349510192871 -22.056625366210938 7.138301372528076
-25.446138381958008 -22.120513916015625 7.138301849365234
-28.349407196044922 -22.10422134399414 7.138301372528076
-23.822185516357422 -13.715071678161621 7.1188764572143555
-20.18122100830078 -13.670597076416016 6.726344108581543
-18.221057891845703 -22.345144271850586 6.958305835723877
-21.545841217041016 -22.345144271850586 6.993865013122559
-23.988189697265625 -22.345144271850586 7.088984966278076
-25.70768928527832 -22.345144271850586 7.069728374481201
-24.49635887145996 -22.345144271850586 6.939896106719971
-21.73598861694336 -22.345144271850586 6.915463447570801
-19.725772857666016 -22.345144271850586 6.962538719177246
-17.221240997314453 -22.04512596130371 7.094595432281494
-27.950439453125 -13.6451997756958 6.682638168334961
-28.51387596130371 -13.54523754119873 6.682638168334961
-25.792612075805664 -13.620596885681152 6.682638168334961
-28.347442626953125 -13.665921211242676 6.682638168334961
-13.753061294555664 -13.335135459899902 7.003711700439453
-14.581161499023438 -13.335135459899902 6.910153865814209
-19.8533935546875 -13.335135459899902 6.7861328125
-15.664451599121094 -13.335135459899902 6.736128807067871
-17.534000396728516 -13.335135459899902 6.749853134155273
-18.70273208618164 -13.335135459899902 6.896640777587891
-11.703570365905762 -21.965208053588867 6.69072961807251
-25.505393981933594 -13.713385581970215 7.0945940017700195
-24.4735164642334 -13.546073913574219 7.138299942016602
-23.412012100219727 -13.592557907104492 7.13830041885376
-28.489377975463867 -13.567306518554688 7.138299942016602
-21.777467727661133 -13.58853816986084 7.13830041885376
-28.2902774810791 -22.426366806030273 7.114075183868408
-25.05217933654785 -22.348731994628906 6.726346015930176
-28.001651763916016 -22.421207427978516 6.726346015930176
-28.48358917236328 -13.715071678161621 6.691644191741943
-28.413536071777344 -22.27442169189453 6.682640075683594
-25.787124633789062 -22.35602569580078 6.682640075683594
-13.853567123413086 -22.4001522064209 6.68264102935791
-28.341516494750977 -22.26272964477539 6.682640075683594
-18.193464279174805 -13.276244163513184 6.726344108581543
-21.184049606323242 -22.046430587768555 6.860917568206787
-11.402308464050293 -22.046430587768555 6.949409484863281
-13.041939735412598 -22.046430587768555 6.7752885818481445
-19.504533767700195 -22.046430587768555 6.819083213806152
-16.301225662231445 -22.046430587768555 6.785236358642578
-10.333946228027344 -22.046430587768555 6.923695087432861
-21.241901397705078 -22.046430587768555 6.73463249206543
5.733614921569824 12.47774887084961 6.6805100440979
2.653020143508911 12.593568801879883 6.6805100440979
2.5858426094055176 12.557153701782227 6.6805100440979
0.17932696640491486 12.454392433166504 7.112213611602783
1.780094027519226 12.522857666015625 7.050920486450195
1.3456099033355713 12.522857666015625 6.978557109832764
4.053776741027832 12.522857666015625 7.040938377380371
-2.7666122913360596 -4.6052656173706055 7.092471599578857
1.8500580787658691 -4.915769100189209 7.136176586151123
-3.395082712173462 -4.9643073081970215 7.136176586151123
-0.7761045694351196 -4.9404425621032715 7.136176586151123
-6.727243900299072 -4.821467399597168 7.136176109313965
1.5491015911102295 -4.5797247886657715 7.107302665710449
5.9668474197387695 -4.899984836578369 7.004645347595215
7.476007461547852 -4.899984836578369 6.844286918640137
-4.592571258544922 -4.899984836578369 7.032164573669434
-4.35287618637085 -4.899984836578369 7.069458961486816
2.741185426712036 -4.899984836578369 6.984619617462158
-6.858675956726074 -4.899984836578369 7.0924272537231445
-3.9469621181488037 -4.932104110717773 7.092471122741699
-4.475449085235596 -4.642353057861328 7.136176109313965
1.436582326889038 -4.738558292388916 7.136176586151123
-1.7776241302490234 -4.725221157073975 7.136176586151123
-4.512707233428955 0.8762403130531311 8.352309226989746
-4.539068222045898 4.69098424911499 8.35230827331543
-4.55519962310791 4.486211776733398 8.352309226989746
-4.579504489898682 1.1360946893692017 8.083051681518555
-4.540599346160889 -1.7763702869415283 8.083052635192871
-4.6875901222229 5.446793556213379 8.35230827331543
-4.614983081817627 2.9589202404022217 8.352309226989746
-4.535959720611572 15.940704345703125 8.3264799118042
-4.698263645172119 15.009435653686523 8.3264799118042
-4.5390472412109375 13.58891487121582 8.25162124633789
-4.5390472412109375 17.04526138305664 8.178314208984375
-4.5390472412109375 11.17370319366455 8.16546630859375
-4.5390472412109375 12.392440795898438 8.175067901611328
-4.656009674072266 11.555710792541504 8.083049774169922
-4.69561243057251 11.089107513427734 8.083049774169922
-6.846750736236572 4.722343444824219 7.941242694854736
-6.783264636993408 3.155468702316284 7.941243648529053
-6.780467510223389 6.249172210693359 7.941242694854736
-4.498589992523193 1.6371961832046509 8.342451095581055
-4.6924285888671875 -0.9340643286705017 8.108879089355469
-4.707110404968262 -9.47568416595459 8.326485633850098
-4.5071611404418945 -8.912249565124512 8.352312088012695
-4.498589992523193 -9.796547889709473 8.350813865661621
-4.690688610076904 -7.819716453552246 8.108880996704102
-4.539048194885254 -9.734528541564941 8.181037902832031
-4.539048194885254 -9.286141395568848 8.244169235229492
-4.5604376792907715 -11.004144668579102 8.083054542541504
-4.628615379333496 -11.096120834350586 8.083054542541504
-4.68783712387085 -9.853768348693848 8.241533279418945
-4.68783712387085 -11.781898498535156 8.157816886901855
-4.626921653747559 -11.33181095123291 8.352313041687012
-4.723898887634277 -19.439176559448242 8.32648754119873
-4.500043869018555 -20.218297958374023 8.352313995361328
-4.498589992523193 -22.921234130859375 8.345513343811035
-4.705416679382324 -22.45611000061035 8.10888385772705
-4.539048194885254 -16.727025985717773 8.316025733947754
-4.539048194885254 -22.582904815673828 8.185847282409668
-4.607644081115723 -21.03073501586914 8.083056449890137
-4.658551216125488 -22.83500099182129 8.083056449890137
-4.687837600708008 -16.94641876220703 8.192901611328125
-4.687838077545166 -22.072551727294922 8.18698501586914
-4.644998550415039 -19.59971809387207 8.352313995361328
-4.684414863586426 -20.3660945892334 8.352314949035645
4.5390472412109375 13.247539520263672 8.266634941101074
4.5390472412109375 16.2928524017334 8.301080703735352
4.5390472412109375 15.401866912841797 8.318443298339844
4.527521133422852 5.631059646606445 8.108877182006836
4.514206886291504 12.272377014160156 8.083048820495605
4.5125837326049805 13.470535278320312 8.083048820495605
4.618448734283447 8.976831436157227 8.083049774169922
4.601018905639648 5.278237342834473 8.352309226989746
4.563288688659668 9.588501930236816 8.35230827331543
4.700709342956543 0.3468286395072937 7.044951438903809
4.711368560791016 9.417498588562012 7.044949531555176
4.728294849395752 3.96907639503479 8.335737228393555
4.728294372558594 9.53941535949707 8.092670440673828
4.520146369934082 -2.192147970199585 8.108878135681152
4.728295803070068 -3.945024013519287 8.106697082519531
4.5390472412109375 -6.638668537139893 8.12331771850586
4.5390472412109375 -10.645797729492188 8.155630111694336
4.5193634033203125 -8.19910717010498 8.326484680175781
4.68783712387085 -7.082482814788818 8.325130462646484
4.68783712387085 -5.03489875793457 8.264479637145996
4.536531925201416 -8.432618141174316 8.352312088012695
4.506772041320801 -9.258550643920898 8.352312088012695
4.517890453338623 -14.61205768585205 8.108881950378418
4.728294372558594 -13.623089790344238 8.092619895935059
4.5390472412109375 -18.560455322265625 8.219305992126465
4.5390472412109375 -19.987159729003906 8.122736930847168
4.596523761749268 -11.461813926696777 8.083054542541504
4.578917026519775 -10.513455390930176 8.083054542541504
4.7152910232543945 -3.3626513481140137 8.083052635192871
4.68783712387085 -21.187030792236328 8.197223663330078
4.68783712387085 -22.13452911376953 8.12995719909668
-4.5101494789123535 9.819568634033203 7.044949531555176
-4.738408088684082 10.693602561950684 7.036036491394043
-4.549160003662109 14.062993049621582 7.005265235900879
-4.549160480499268 13.991819381713867 6.898835182189941
-4.549160003662109 10.64648151397705 6.9491753578186035
-4.540945053100586 12.724520683288574 7.01912260055542
-4.639183044433594 16.258955001831055 7.044948101043701
-4.607065677642822 -0.48215851187705994 7.044951438903809
-4.523748874664307 -1.2288596630096436 6.801519870758057
-4.508703231811523 -1.2907558679580688 6.798807144165039
-4.549160003662109 -0.5021291971206665 7.016390323638916
-4.549160003662109 1.9966750144958496 6.964159965515137
-4.529538154602051 1.3009004592895508 7.019124507904053
-4.608427047729492 2.990981101989746 6.775692939758301
-4.718790054321289 -0.5314264893531799 6.775693893432617
-4.6979498863220215 0.10832702368497849 6.908796310424805
-4.6979498863220215 8.249549865722656 7.015565872192383
-4.677011013031006 1.9519129991531372 7.04495096206665
-4.528398036956787 -4.6190714836120605 6.801519870758057
-4.549160003662109 -4.685191631317139 6.894227504730225
-4.6979498863220215 -4.45642614364624 6.967488765716553
4.58518123626709 12.065369606018066 7.044948577880859
4.596935749053955 2.7570135593414307 7.04495096206665
4.508703231811523 15.400565147399902 7.042823314666748
4.549160003662109 17.22476577758789 6.8058247566223145
4.549160003662109 1.066063404083252 6.8457255363464355
4.549160003662109 8.431809425354004 6.874122619628906
4.549160003662109 7.638038635253906 6.864691257476807
4.549160003662109 10.392379760742188 6.833281517028809
4.549160003662109 12.525148391723633 6.9707159996032715
4.549160003662109 13.052915573120117 6.942760467529297
4.549160003662109 14.375142097473145 6.949817180633545
4.6987996101379395 9.030652046203613 6.801518440246582
4.531790256500244 -0.8728477358818054 6.801520824432373
4.6979498863220215 19.306598663330078 6.915605068206787
4.697949409484863 18.334035873413086 6.971621036529541
4.6979498863220215 4.2926926612854 6.998107433319092
4.6979498863220215 12.560667991638184 7.00958251953125
6.822660446166992 12.754000663757324 7.9412407875061035
6.815492153167725 18.805574417114258 7.941238880157471
6.884981632232666 1.108673095703125 7.941243648529053
4.5519609451293945 -0.09692162275314331 6.775693416595459
4.562283992767334 -0.15839213132858276 6.775693416595459
4.654510498046875 1.361547827720642 6.775692939758301
4.731267929077148 13.795029640197754 6.77569055557251
4.508703231811523 -1.706852674484253 6.780517101287842
4.738407135009766 7.8493218421936035 7.021337032318115
4.708695888519287 13.452606201171875 7.019122123718262
4.549160003662109 -1.8218048810958862 6.977005481719971
4.711331367492676 -4.1136322021484375 6.775693893432617
4.679920673370361 -4.57154655456543 7.044951915740967
-1.7590817213058472 15.939401626586914 8.083048820495605
-1.763856291770935 14.513581275939941 8.10887622833252
-1.6069319248199463 17.70103645324707 8.30006217956543
-1.7557220458984375 18.492874145507812 8.321231842041016
-1.6680095195770264 -12.198687553405762 8.352312088012695
-1.5725740194320679 -10.556777000427246 8.108880996704102
-1.796180009841919 -12.229403495788574 8.09692668914795
-1.6069319248199463 -10.873074531555176 8.271510124206543
-1.6069319248199463 -9.827935218811035 8.310964584350586
-1.6159508228302002 -11.850688934326172 8.083054542541504
-1.57956063747406 -5.418768405914307 8.083053588867188
-1.72450590133667 -10.187504768371582 8.083054542541504
-1.755722999572754 -12.224759101867676 8.12934684753418
-1.755722999572754 -10.839714050292969 8.239494323730469
-1.6934704780578613 -5.337116241455078 8.352311134338379
-1.6387567520141602 -19.539644241333008 8.352313995361328
-1.585018515586853 -18.576343536376953 8.108882904052734
-1.796180009841919 -16.912687301635742 8.094127655029297
-1.6069319248199463 -22.621231079101562 8.269532203674316
-1.6069319248199463 -14.702112197875977 8.326290130615234
-1.576457142829895 -22.223154067993164 8.32648754119873
-1.568463683128357 -20.311914443969727 8.083056449890137
-1.7521531581878662 -18.7648868560791 8.08305549621582
-1.755722999572754 -17.5930118560791 8.2467041015625
-1.755722999572754 -22.213857650756836 8.15356159210205
-1.7150856256484985 -17.000446319580078 8.352313041687012
1.6029366254806519 16.79448890686035 8.352306365966797
1.675750970840454 4.444600582122803 8.352309226989746
1.591590166091919 14.08591079711914 8.3264799118042
4.648448944091797 8.19931697845459 8.35230827331543
4.718262672424316 8.425623893737793 8.35230827331543
1.6561335325241089 14.248607635498047 8.083048820495605
1.6635937690734863 9.001971244812012 8.083049774169922
1.6519659757614136 5.053401947021484 8.083050727844238
1.6929388046264648 18.77739906311035 8.083047866821289
1.772935152053833 13.154683113098145 8.083048820495605
1.782934546470642 3.626903772354126 8.083050727844238
1.5822583436965942 3.5328967571258545 8.108878135681152
1.6069319248199463 7.2766642570495605 8.129286766052246
1.6069319248199463 10.728726387023926 8.157906532287598
1.6069319248199463 8.16726016998291 8.223786354064941
1.7557220458984375 13.569214820861816 8.295966148376465
1.7557220458984375 17.96477699279785 8.226714134216309
1.7557220458984375 15.550104141235352 8.266676902770996
1.7557220458984375 8.297810554504395 8.192689895629883
1.7557220458984375 10.21814250946045 8.213239669799805
1.7961795330047607 11.459781646728516 8.086796760559082
1.7751168012619019 -0.21416223049163818 8.352309226989746
1.5664739608764648 -4.255281925201416 8.087760925292969
1.6069319248199463 -7.251778602600098 8.179574966430664
1.6069319248199463 -5.920652866363525 8.223093032836914
1.5927127599716187 -9.782187461853027 8.326485633850098
4.500110626220703 -21.844301223754883 8.352314949035645
4.508442401885986 -21.924274444580078 8.352314949035645
1.7557224035263062 -6.480143070220947 8.317815780639648
1.7557228803634644 -12.344613075256348 8.306224822998047
1.57829749584198 -3.4511005878448486 8.352310180664062
1.5670896768569946 -4.290173053741455 8.352311134338379
1.6208875179290771 -11.292068481445312 8.352313041687012
1.5664739608764648 -20.43465805053711 8.097749710083008
1.6069319248199463 -16.74431800842285 8.190125465393066
1.6069319248199463 -16.259807586669922 8.111294746398926
1.6062747240066528 -19.904266357421875 8.32648754119873
1.755722999572754 -22.692607879638672 8.219490051269531
1.755722999572754 -17.338773727416992 8.322421073913574
-6.66151237487793 3.4107930660247803 7.9192585945129395
-6.680569171905518 5.919687747955322 7.915415287017822
-6.850759983062744 3.2846176624298096 7.839682579040527
-6.850759983062744 -1.7307007312774658 7.833496570587158
-6.850759983062744 2.9036526679992676 7.8695268630981445
-6.850759983062744 3.8424582481384277 7.80159854888916
-6.701970100402832 11.702159881591797 7.872152805328369
-6.701970100402832 3.527966260910034 7.907543659210205
-6.701970100402832 11.041767120361328 7.892605304718018
-6.701970100402832 5.744565010070801 7.872025966644287
-6.891218185424805 11.996111869812012 7.680123329162598
-6.87659215927124 0.18611666560173035 7.915416717529297
-6.678534507751465 0.5671096444129944 7.671985626220703
-6.664735794067383 3.0777664184570312 7.671985149383545
-6.763331890106201 3.469265937805176 7.671986103057861
-6.735772609710693 2.517193078994751 7.671986103057861
-4.68783712387085 14.065627098083496 8.315037727355957
-4.68783712387085 0.5302650332450867 8.169537544250488
-4.68783712387085 7.560229778289795 8.259138107299805
-4.68783712387085 3.5702383518218994 8.182781219482422
-6.821748733520508 11.252666473388672 7.6719841957092285
-6.8897013664245605 8.916409492492676 7.6719841957092285
-6.874043941497803 2.2167723178863525 7.697812557220459
-6.696541786193848 12.501514434814453 7.9412407875061035
-6.678344249725342 0.07304485887289047 7.941244602203369
-6.718223571777344 -11.788103103637695 7.94124698638916
-6.6991963386535645 -4.64617919921875 7.697814464569092
-6.891218185424805 -4.301072120666504 7.685088634490967
-6.701970100402832 -6.0486907958984375 7.7639055252075195
-6.701970100402832 -9.704280853271484 7.766404628753662
-6.688564300537109 -5.630173683166504 7.9154181480407715
-6.719212532043457 -8.917668342590332 7.671988487243652
-6.791076183319092 -4.95694637298584 7.671987533569336
-6.830484867095947 -11.319018363952637 7.671988487243652
-6.850759983062744 -9.827852249145508 7.861966609954834
-6.850759983062744 -8.32714557647705 7.910943984985352
-6.8040995597839355 -6.797860622406006 7.941246032714844
-6.667800426483154 -15.832977294921875 7.941247463226318
-6.684811592102051 -22.41171646118164 7.697817802429199
-6.891218185424805 -16.001041412353516 7.673750400543213
-6.701970100402832 -20.738014221191406 7.7888569831848145
-6.701970100402832 -15.8622407913208 7.7135701179504395
-6.700256824493408 -15.620882987976074 7.915421485900879
-6.764987468719482 -21.326183319091797 7.671990394592285
-6.8518571853637695 -18.04123306274414 7.671989917755127
-6.850759983062744 -20.309085845947266 7.887484073638916
-6.850759983062744 -14.931885719299316 7.910134315490723
-6.801478385925293 -20.584871292114258 7.941248416900635
-6.825194835662842 -19.433151245117188 7.941248416900635
6.701971054077148 16.206037521362305 7.857325553894043
6.701971054077148 9.22671127319336 7.877230167388916
6.701971054077148 16.755695343017578 7.866489887237549
6.701971054077148 13.30980110168457 7.873148441314697
6.70197057723999 0.06760270893573761 7.824010372161865
6.70197057723999 8.329878807067871 7.752563953399658
6.701970100402832 -0.21383295953273773 7.82646369934082
6.6988043785095215 11.110827445983887 7.915414333343506
6.8507609367370605 14.834089279174805 7.8932719230651855
6.8507609367370605 5.812673091888428 7.862423419952393
6.8507609367370605 7.335687637329102 7.902203559875488
6.8507609367370605 14.429909706115723 7.779705047607422
6.850760459899902 3.7763867378234863 7.844482898712158
6.75163459777832 2.2997052669525146 7.671985149383545
6.743860721588135 10.54982852935791 7.671983242034912
6.694020748138428 0.6656381487846375 7.671985626220703
6.685417652130127 14.204792022705078 7.941240310668945
6.66984224319458 14.410688400268555 7.941240310668945
6.760092735290527 3.553854465484619 7.9412431716918945
6.804075241088867 0.7026332020759583 7.671986103057861
6.851391315460205 10.18349552154541 7.67198371887207
6.776663780212402 19.062837600708008 7.671980857849121
6.891218185424805 8.886249542236328 7.67848014831543
6.661512851715088 10.048309326171875 7.940998554229736
6.8844733238220215 17.811595916748047 7.697809219360352
6.8805832862854 -5.335293292999268 7.91541862487793
6.711010456085205 -7.704319953918457 7.9412455558776855
6.891218185424805 -3.568272113800049 7.929997444152832
6.701971054077148 -2.020991563796997 7.79490852355957
6.701971054077148 -4.1165361404418945 7.7442851066589355
6.701971054077148 -8.19139289855957 7.721958637237549
6.768655776977539 -5.0706868171691895 7.671987533569336
6.790628433227539 -7.530184268951416 7.671988010406494
6.808823108673096 -11.722315788269043 7.6719889640808105
6.8507609367370605 -5.518405437469482 7.890650749206543
6.8507609367370605 -8.802875518798828 7.822504043579102
6.801407337188721 -8.718453407287598 7.941246032714844
6.681790351867676 -17.451419830322266 7.941247940063477
6.688514232635498 -14.292152404785156 7.697815895080566
6.661513805389404 -22.14982795715332 7.69020414352417
6.701971054077148 -18.599687576293945 7.753507614135742
6.701971054077148 -19.51856231689453 7.708190441131592
6.696199893951416 -18.98756980895996 7.915422439575195
6.746227264404297 -19.847047805786133 7.671990394592285
6.855850696563721 -21.406301498413086 7.671990394592285
6.8507609367370605 -17.330909729003906 7.908156394958496
6.8507609367370605 -22.882715225219727 7.759727478027344
6.8475213050842285 -19.040090560913086 7.941248416900635
-8.020570755004883 16.48360252380371 7.568022727966309
-8.061027526855469 11.24818229675293 7.453394412994385
-8.061027526855469 10.234992980957031 7.518383026123047
-8.061027526855469 17.999393463134766 7.532755374908447
-8.061027526855469 5.340413570404053 7.474335670471191
-8.209817886352539 10.057906150817871 7.4155426025390625
-8.209818840026855 5.554716110229492 7.361547470092773
-8.209817886352539 13.661559104919434 7.482450008392334
-8.209817886352539 9.627209663391113 7.426911354064941
-8.209817886352539 13.596124649047852 7.47827672958374
-8.136972427368164 1.9604130983352661 7.303717136383057
-8.188912391662598 16.26128387451172 7.303714275360107
-8.060283660888672 6.278140068054199 7.303716659545898
-8.028200149536133 9.3023099899292 7.303715705871582
-8.02379035949707 19.179550170898438 7.547143936157227
-8.245867729187012 4.88755989074707 7.329543590545654
-8.250276565551758 12.612524032592773 7.55832576751709
-8.094470024108887 17.215394973754883 7.572971343994141
-8.111990928649902 14.166223526000977 7.572972297668457
-8.203733444213867 7.622786521911621 7.57297420501709
-8.232612609863281 10.867081642150879 7.572973251342773
-6.723366737365723 19.3043270111084 8.072427749633789
-8.872037887573242 19.273174285888672 7.4264326095581055
-8.250276565551758 -7.511590003967285 7.551872730255127
-8.028291702270508 -11.625627517700195 7.303720951080322
-8.130915641784668 -9.985333442687988 7.572978496551514
-8.240812301635742 -7.778645992279053 7.3295464515686035
-8.209817886352539 -6.916102886199951 7.426616668701172
-8.209818840026855 -2.8653275966644287 7.337213516235352
-8.186601638793945 -6.0516252517700195 7.303719520568848
-8.171600341796875 -2.4473602771759033 7.572976589202881
-8.214591979980469 -2.170056104660034 7.572977066040039
-8.209818840026855 -17.785558700561523 7.345855236053467
-8.209818840026855 -14.555927276611328 7.4058051109313965
-8.020570755004883 -15.128103256225586 7.3066534996032715
-8.110008239746094 -13.139759063720703 7.572978973388672
-8.229026794433594 -12.447422981262207 7.547152042388916
-8.061027526855469 -12.550999641418457 7.353736400604248
-8.061027526855469 -12.42115592956543 7.476515769958496
-8.213785171508789 -14.367244720458984 7.57297945022583
-8.065463066101074 -18.668790817260742 7.303721904754639
-8.250276565551758 -17.04172134399414 7.304059028625488
-8.143166542053223 -15.048523902893066 7.3037214279174805
8.32410717010498 17.042377471923828 7.48249626159668
8.110251426696777 13.627066612243652 7.264892578125
8.16415023803711 11.96584701538086 7.508323669433594
8.142048835754395 16.922889709472656 7.508322238922119
8.334378242492676 17.456340789794922 7.500127792358398
8.293919563293457 1.01335608959198 7.46151065826416
8.293919563293457 16.53645133972168 7.4081807136535645
8.293919563293457 5.283202171325684 7.457700252532959
8.293919563293457 4.085855960845947 7.423250675201416
8.127203941345215 17.542306900024414 7.48249626159668
8.160706520080566 18.49853515625 7.2390642166137695
8.21365737915039 9.593351364135742 7.2390666007995605
8.145129203796387 8.391402244567871 7.344682693481445
8.145129203796387 12.8829984664917 7.3762712478637695
8.145129203796387 15.377954483032227 7.3812384605407715
8.145129203796387 19.22859764099121 7.4796857833862305
8.25241470336914 6.38420295715332 7.508325099945068
8.23459529876709 2.2487611770629883 7.508326053619385
8.230216026306152 3.023879051208496 7.508325576782227
8.232881546020508 17.3026065826416 7.239064693450928
8.302331924438477 14.99213981628418 7.239065170288086
-4.508743762969971 10.008298873901367 8.10887622833252
8.206390380859375 -5.178277492523193 7.23906946182251
8.105185508728027 -9.087985038757324 7.482501983642578
8.236907958984375 -7.697990417480469 7.239069938659668
8.2587251663208 -3.3479204177856445 7.508327484130859
8.334378242492676 -2.651156425476074 7.258608818054199
8.145129203796387 -6.47792911529541 7.333325386047363
8.145129203796387 -4.272654056549072 7.293116569519043
8.293919563293457 -5.033352851867676 7.395010471343994
8.293919563293457 -4.151373386383057 7.294433116912842
8.307259559631348 -7.313346862792969 7.264896869659424
8.17791748046875 -5.4359540939331055 7.508327484130859
8.19621467590332 -22.42490005493164 7.508332252502441
8.12156867980957 -17.536344528198242 7.264898777008057
8.334378242492676 -14.806842803955078 7.262131690979004
8.145130157470703 -17.58676528930664 7.31259822845459
8.145130157470703 -19.882905960083008 7.404797554016113
8.129844665527344 -20.67618751525879 7.482504367828369
8.208876609802246 -19.603965759277344 7.239073276519775
8.33236026763916 -19.316495895385742 7.239073276519775
8.293920516967773 -17.90537452697754 7.390851020812988
8.293920516967773 -20.658620834350586 7.432291507720947
8.257797241210938 -16.083528518676758 7.50832986831665
-9.973313331604004 -13.467934608459473 6.985693454742432
-9.978379249572754 -8.014019012451172 6.742260456085205
-9.972822189331055 -11.836832046508789 6.730421543121338
-10.013280868530273 -15.6951265335083 6.8559112548828125
-10.013280868530273 -11.745908737182617 6.839266777038574
-9.984749794006348 -13.61816692352295 6.959867000579834
-10.042882919311523 -11.362988471984863 6.716434478759766
-10.17929744720459 -7.751322269439697 6.716434001922607
-10.162070274353027 -13.563738822937012 6.899097919464111
-10.162070274353027 -14.788209915161133 6.910452365875244
-10.18297004699707 -14.998188972473145 6.98569393157959
-10.042501449584961 -23.006608963012695 6.985694885253906
-9.972822189331055 -18.423606872558594 6.963486194610596
-10.013280868530273 -23.28062629699707 6.835292816162109
-10.013280868530273 -23.71731948852539 6.866674423217773
-10.066558837890625 -22.162839889526367 6.716436386108398
-10.17995834350586 -18.457502365112305 6.716435432434082
-10.162070274353027 -22.967920303344727 6.955674648284912
-10.107298851013184 -20.596786499023438 6.985694408416748
-14.371646881103516 -14.853947639465332 6.98569393157959
-14.379615783691406 -13.619370460510254 6.985693454742432
-14.302772521972656 -13.03929328918457 6.72261381149292
-14.343231201171875 -14.22693157196045 6.9246602058410645
-14.343231201171875 -9.700218200683594 6.927043914794922
-14.308080673217773 -15.4624662399292 6.959867000579834
-14.363726615905762 -12.328211784362793 6.716434955596924
-14.500521659851074 -16.14210319519043 6.716434955596924
-14.492020606994629 -13.548239707946777 6.821094512939453
-14.492020606994629 -12.844502449035645 6.83165979385376
-14.51705551147461 -14.899893760681152 6.98569393157959
-14.326016426086426 -23.1385555267334 6.985694885253906
-14.302772521972656 -21.306991577148438 6.964773178100586
-14.343231201171875 -17.59772491455078 6.756965160369873
-14.343231201171875 -22.596057891845703 6.74268102645874
-14.37134838104248 -21.19063377380371 6.716436386108398
-14.493754386901855 -21.745712280273438 6.716436386108398
-14.492020606994629 -20.17748260498047 6.912862300872803
-14.418643951416016 -22.55884552001953 6.985694885253906
-18.852630615234375 -15.147256851196289 6.959867000579834
-18.64380645751953 -16.091154098510742 6.98569393157959
-18.862428665161133 -11.6966552734375 6.972887992858887
-18.673181533813477 -10.709877014160156 6.895756244659424
-18.673181533813477 -15.406886100769043 6.789028167724609
-18.673181533813477 -14.865090370178223 6.901493072509766
-18.712194442749023 -13.310153007507324 6.716434955596924
-18.786441802978516 -16.079435348510742 6.71643590927124
-18.821971893310547 -15.075959205627441 6.77597713470459
-18.821971893310547 -15.330390930175781 6.785367012023926
-18.766569137573242 -14.018412590026855 6.985693454742432
-18.832429885864258 -22.399642944335938 6.959868431091309
-18.635894775390625 -19.216691970825195 6.742262840270996
-18.823633193969727 -21.464603424072266 6.742263317108154
-18.673181533813477 -20.64791488647461 6.81153678894043
-18.717262268066406 -23.126428604125977 6.716436862945557
-18.806745529174805 -22.2856502532959 6.716436862945557
-18.821971893310547 -18.697160720825195 6.9369893074035645
-18.821971893310547 -19.671056747436523 6.863679885864258
-23.180078506469727 -13.358195304870605 6.959866523742676
-22.978431701660156 -11.338565826416016 6.985692977905273
-23.192378997802734 -7.132388591766357 6.985261917114258
-23.156356811523438 -9.923944473266602 6.742260932922363
-23.003131866455078 -11.456489562988281 6.910329341888428
-23.003131866455078 -14.03438663482666 6.8431172370910645
-23.025327682495117 -11.328620910644531 6.716434478759766
-23.139789581298828 -15.209427833557129 6.716434955596924
-23.15192222595215 -13.957465171813965 6.8272833824157715
-23.15192222595215 -15.862370491027832 6.8727707862854
-23.133174896240234 -15.163545608520508 6.98569393157959
-23.177993774414062 -23.226411819458008 6.959868907928467
-23.042804718017578 -22.208721160888672 6.985694885253906
-23.192380905151367 -21.282373428344727 6.7305169105529785
-23.003131866455078 -22.437313079833984 6.828782081604004
-22.99465560913086 -22.93242073059082 6.959868907928467
-23.11503791809082 -21.651493072509766 6.716436386108398
-23.15192222595215 -23.58420181274414 6.856253623962402
-23.15192222595215 -19.433063507080078 6.930983543395996
-23.144372940063477 -21.6240177154541 6.985694408416748
-27.312747955322266 -11.171451568603516 6.985692977905273
-27.292625427246094 -15.279293060302734 6.963538646697998
-27.497169494628906 -15.07301139831543 6.74226188659668
-27.33308219909668 -10.047355651855469 6.7909746170043945
-27.33308219909668 -14.713507652282715 6.910681247711182
-27.364337921142578 -10.534491539001465 6.716434478759766
-27.413843154907227 -15.621006965637207 6.716434955596924
-27.481874465942383 -14.658933639526367 6.869569778442383
-27.481874465942383 -13.118888854980469 6.843837261199951
-27.46013641357422 -12.956658363342285 6.985693454742432
-27.43782615661621 -8.788987159729004 6.985692501068115
-27.35200309753418 -21.832767486572266 6.985694408416748
-27.52233123779297 -22.06805992126465 6.740353107452393
-27.333084106445312 -22.558401107788086 6.858342170715332
-27.301570892333984 -22.5769100189209 6.959868907928467
-27.39651870727539 -20.128311157226562 6.71643590927124
-27.481874465942383 -17.812238693237305 6.9385175704956055
-27.481874465942383 -22.06264305114746 6.88989782333374
-27.410144805908203 -21.88715934753418 6.985694408416748
-8.737750053405762 19.541645050048828 6.969956874847412
-4.588386535644531 9.942859649658203 6.775691509246826
-4.6979498863220215 12.522847175598145 6.807830810546875
-4.6979498863220215 9.478461265563965 6.869866371154785
-4.6979498863220215 11.226127624511719 6.9457502365112305
-4.680591583251953 13.063563346862793 6.775691032409668
6.544949054718018 19.664323806762695 7.629222393035889
-0.15331558883190155 -4.968451023101807 6.722461223602295
1.045514464378357 -4.5797247886657715 6.681144714355469
9.229046821594238 -4.648191928863525 6.84226131439209
2.0957295894622803 -4.648190975189209 6.999013900756836
7.969974517822266 -4.648191928863525 6.847782611846924
6.0803070068359375 -4.648191452026367 6.85513973236084
9.482794761657715 -4.648191928863525 6.83563756942749
-4.381771564483643 -4.648190498352051 7.0723466873168945
0.8147648572921753 -4.648190975189209 6.841532230377197
-8.213275909423828 -4.648190021514893 6.843106269836426
-4.987787246704102 -4.648190498352051 6.760326385498047
-2.067228317260742 -4.648190498352051 6.823110580444336
-4.9495768547058105 -4.648190498352051 6.901445388793945
-7.651366233825684 -4.648190021514893 7.078384876251221
-8.691252708435059 -4.648190021514893 6.8447465896606445
-8.241325378417969 -4.919740200042725 6.68051290512085
-1.5588735342025757 -4.827642917633057 6.680513381958008
-1.2388911247253418 -4.835280895233154 6.680513381958008
4.67593240737915 -4.957496643066406 6.680513381958008
-3.3290412425994873 -4.934211730957031 6.680513381958008
8.428902626037598 -4.788830757141113 6.680513858795166
6.005321025848389 -4.54262113571167 7.7878265380859375
-7.993537902832031 -4.59658145904541 6.724218845367432
-4.877333164215088 3.8068833351135254 7.806667327880859
-4.877333164215088 3.9067044258117676 5.9558281898498535
-4.877333164215088 3.9274191856384277 7.231904983520508
-5.934571743011475 -4.710776329040527 7.812735080718994
8.29865837097168 12.774652481079102 6.7961225509643555
3.7451467514038086 12.774653434753418 6.80586051940918
5.443090438842773 12.774653434753418 6.877573013305664
-6.448583602905273 -4.946407318115234 6.72421932220459
9.3955717086792 -4.907437324523926 6.724222183227539
7.312310218811035 12.879969596862793 7.40502405166626
7.667243957519531 12.41881275177002 7.33554220199585
6.0563178062438965 4.103163719177246 7.776132583618164
5.754992485046387 4.148311614990234 7.866725921630859
7.209962844848633 12.702981948852539 7.429287910461426
-7.08219575881958 19.366165161132812 7.467698097229004
5.629247188568115 19.294368743896484 7.904527187347412
-3.741307020187378 3.77026104927063 8.431882858276367
-4.5056939125061035 3.996028423309326 8.431882858276367
-3.9280812740325928 3.8070881366729736 8.431882858276367
-2.6236908435821533 4.0150299072265625 8.431882858276367
0.9066988825798035 4.081686019897461 8.431883811950684
2.8807425498962402 3.9954519271850586 8.431883811950684
4.088545322418213 4.026072978973389 8.431883811950684
5.389736652374268 4.036518096923828 8.431883811950684
4.880344867706299 4.0369157791137695 8.431883811950684
5.509304523468018 -4.8540120124816895 7.936470985412598
-3.280596971511841 -4.661345481872559 6.680513381958008
2.139843702316284 -4.728536605834961 6.680513381958008
8.975381851196289 -4.766972064971924 6.680513858795166
6.988423824310303 12.456925392150879 7.495893478393555
5.969690322875977 -4.6003899574279785 7.782044887542725
4.315317153930664 4.00931453704834 5.727553367614746
4.315317153930664 3.8246524333953857 7.649741172790527
4.315317153930664 3.9113481044769287 5.5600104331970215
4.315317153930664 3.8506457805633545 4.475205421447754
4.315317153930664 3.783217430114746 1.9951692819595337
4.315317153930664 4.010630130767822 0.7999266982078552
-6.289422512054443 3.707520008087158 8.171319961547852
-1.362737774848938 3.8692216873168945 7.976222038269043
-3.7064368724823 4.00728178024292 7.976222038269043
-3.6673810482025146 4.002878189086914 7.976222038269043
-4.49428653717041 3.89913272857666 7.976222038269043
0.7860985398292542 3.8454432487487793 7.976222038269043
3.187126874923706 3.8828330039978027 7.976222515106201
2.3676350116729736 3.974050760269165 7.976222515106201
3.352618932723999 3.9569361209869385 7.976222515106201
5.380697727203369 3.7290358543395996 7.976222991943359
-0.2545197308063507 3.7429699897766113 6.682450771331787
-3.6500558853149414 4.063231468200684 6.891495227813721
-3.645385265350342 4.063231468200684 7.053186416625977
-8.597966194152832 4.063231945037842 7.0914082527160645
2.0910441875457764 4.063231468200684 7.08995246887207
-9.657955169677734 4.063231945037842 7.083907604217529
-8.416584014892578 4.063231945037842 6.878250598907471
-8.223980903625488 4.063231945037842 7.02043342590332
8.721202850341797 4.087450981140137 7.031622409820557
-8.72263240814209 4.0874528884887695 7.167795181274414
-9.05951976776123 4.0874528884887695 7.056707382202148
-8.061027526855469 -3.485607624053955 7.44322395324707
-8.061027526855469 -3.3833606243133545 7.511154651641846
-8.025263786315918 -17.121501922607422 7.547153949737549
8.302481651306152 9.782410621643066 7.264893531799316
1.968811273574829 3.9839725494384766 6.680511474609375
4.620949745178223 4.054656505584717 6.680511474609375
-8.064786911010742 3.997225046157837 6.680510997772217
-5.083022594451904 3.8588531017303467 6.680510997772217
-6.31984281539917 4.1045308113098145 6.680510997772217
-7.415547847747803 4.0049848556518555 6.680510997772217
-5.440762519836426 4.106991767883301 6.680510997772217
7.657858848571777 4.168673992156982 7.3070855140686035
-5.831242561340332 4.1200103759765625 7.092467308044434
-9.02170181274414 4.131698131561279 7.09799337387085
-8.070520401000977 3.8114354610443115 6.91492223739624
-5.408262729644775 3.8114352226257324 6.801538467407227
1.1059068441390991 3.8114349842071533 6.769771099090576
-8.353015899658203 3.8114356994628906 7.032107830047607
-7.259393692016602 3.8114354610443115 6.911571502685547
-3.668029308319092 3.8114352226257324 6.850808620452881
-1.9739505052566528 3.7632150650024414 6.724217414855957
4.989221572875977 3.7522389888763428 6.724217891693115
-6.874329090118408 4.029742240905762 7.136174201965332
-5.309442520141602 3.9867067337036133 7.136174201965332
-3.0567517280578613 4.038581371307373 7.13617467880249
8.072722434997559 3.7489519119262695 7.092469215393066
1.080043911933899 3.7770042419433594 7.13617467880249
-5.054851055145264 3.7941973209381104 7.136174201965332
-0.9973198175430298 3.824605703353882 7.13617467880249
-9.252155303955078 3.85540509223938 7.136174201965332
-3.535796642303467 3.7455484867095947 8.019927024841309
1.6625758409500122 -12.342379570007324 8.083054542541504
1.5670642852783203 -4.076608657836914 8.083052635192871
1.6567548513412476 -17.548641204833984 8.352313995361328
1.6981585025787354 -18.83403968811035 8.352313995361328
